2.319,2.326,2.335,2.335,2.343,2.343,2.343,2.343,2.343,2.343,2.351,2.351,2.359,2.367,2.375,2.384,2.384,2.392,2.401,2.401,2.401,2.401,2.401,2.401,2.401,2.401,2.401,2.401,2.401,2.401,2.401,2.401,2.392,2.392,0,0,0,0,0,0,0,0,0,1.285,1.285,1.285,1.287,1.287,1.29,1.29,1.29,1.29,1.29,1.292,1.292,1.292,1.294,1.294,1.294,1.297,1.297,1.297,1.299,1.299,1.299,1.299,1.299,1.299,1.294,1.292,1.29,1.287,1.287,1.287,1.29,1.294,1.299,1.304,1.309,1.32,1.325,1.333,1.338,1.343,1.346,1.349,1.351,1.357,1.359,1.359,1.362,1.365,1.368,1.368,1.37,1.37,1.37,1.37,1.37,1.37,1.37,1.368,1.368,1.365,1.365,1.362,1.362,1.365,1.365,1.368,1.368,1.37,1.373,1.376,1.379,1.382,1.382,1.384,1.384,1.384,1.387,1.387,1.39,1.39,1.393,1.393,1.396,1.402,1.402,1.408,1.41,1.413,1.416,1.419,1.422,1.425,1.428,1.431,1.431,1.434,1.434,1.437,1.44,1.444,1.444,1.447,1.45,1.453,1.456,1.459,1.462,1.465,1.465,1.465,1.465,1.462,1.456,1.45,1.44,1.428,1.416,1.408,1.402,1.396,1.39,1.39,1.387,1.387,1.387,1.387,1.39,1.399,1.413,1.437,1.456,1.481,1.518,1.556,1.589,1.612,1.635,1.651,1.668,1.688,0,0,0,0,0,0,0,0,0,0,0,0,0,0,0,0,0,0,0,0,0,0,0,0,0,0,0,0,0,0,0,0,0,0,0,0,0,0,0,0,0,0,0,0,0,0,0,0,0,0,0,0,0,0,0,0,0,0,0,0,0,1.912,1.918,1.951,1.974,1.997,1.997,1.934,1.886,0,1.763,0,1.651,1.6,1.571,1.556,1.528,1.542,1.553,1.564,0,2.234,2.242,2.249,2.257,2.257,2.257,2.257,2.257,2.249,2.249,2.242,0,0,0,0,0,0,0,1.469,1.475,1.481,1.491,0,0,0,1.835,0,0,2.052,2.083,2.083,2.077,0,0,0,0,0,0,1.444,0,1.45,1.453,1.456,1.459,0,0,0,0,2.009,2.052,2.077,2.083,2.077,2.058,2.045,2.015,2.003,1.985,1.968,0,0,0,0,0,0,0,0,0,0,0,2.07,2.09,2.103,2.103,2.109,2.109,2.109,0,0,0,0,0,0,0,0,0,0,1.469,1.495,1.511,1.525,1.542,1.556,1.574,1.586,1.593,1.582,0,0,0,1.521,1.508,1.491,1.475,1.472,1.469,1.465,1.469,1.475,1.478,1.481,1.485,1.488,1.491,1.491,1.495,1.495,1.495,1.491,1.491,1.491,1.491,1.488,1.485,1.481,1.481,1.478,1.481,1.488,1.491,1.491,1.495,1.495,1.501,1.504,1.508,1.508,1.501,1.501,1.504,1.501,1.501,1.501,1.498,1.495,1.488,1.488,1.481,1.478,1.478,1.498,1.481,0,0,0,2.015,2.033,2.033,2.021,2.015,2.003,1.997,1.945,0,1.786,0,1.62,1.535,1.515,1.504,1.504,1.515,1.521,1.624,0,1.891,1.98,2.052,2.077,2.077,2.07,2.07,2.064,0,0,0,0,0,0,0,0,0,0,0,2.103,2.103,2.109,2.116,2.116,2.116,2.116,2.116,2.122,2.122,2.083,2.015,1.945,0,0,0,0,1.564,1.574,1.604,1.647,1.701,0,1.81,1.886,1.945,1.945,1.934,1.923,1.902,1.87,1.83,0,1.745,1.693,1.639,1.6,1.571,1.553,1.553,1.56,1.578,1.589,1.608,1.624,1.639,1.651,1.655,1.651,1.643,1.627,1.612,1.593,1.578,1.56,1.546,1.539,1.532,1.532,1.535,1.546,1.56,1.574,1.593,1.604,1.616,1.624,1.631,1.631,1.627,1.62,1.604,1.589,1.574,1.564,1.549,1.539,1.525,1.515,1.508,1.501,1.498,1.495,1.495,1.495,1.491,1.488,1.488,1.488,1.491,1.495,1.491,1.495,1.491,1.495,1.491,1.491
2.319,2.335,2.335,2.335,2.343,2.343,2.343,2.351,2.351,2.351,2.351,2.359,2.359,2.367,2.375,2.375,2.384,2.384,2.392,2.392,2.392,2.392,2.392,2.392,2.392,2.392,2.392,2.392,2.392,2.392,2.392,2.392,2.392,0,0,0,0,0,0,0,0,1.277,1.28,1.28,1.282,1.282,1.282,1.285,1.285,1.285,1.285,1.285,1.285,1.287,1.287,1.287,1.287,1.29,1.29,1.29,1.292,1.292,1.294,1.294,1.294,1.297,1.294,1.292,1.29,1.287,1.285,1.28,1.28,1.28,1.282,1.287,1.292,1.299,1.307,1.315,1.325,1.33,1.335,1.341,1.343,1.346,1.351,1.354,1.357,1.359,1.362,1.362,1.365,1.365,1.365,1.365,1.365,1.365,1.362,1.362,1.362,1.359,1.359,1.357,1.357,1.354,1.354,1.357,1.357,1.359,1.362,1.365,1.368,1.37,1.373,1.373,1.376,1.379,1.379,1.382,1.382,1.384,1.384,1.387,1.39,1.39,1.393,1.396,1.399,1.402,1.405,1.408,1.41,1.413,1.419,1.419,1.422,1.425,1.425,1.428,1.428,1.431,1.434,1.437,1.437,1.444,1.447,1.45,1.453,1.456,1.459,1.462,1.459,1.459,1.456,1.45,1.444,1.434,1.425,1.413,1.402,1.396,1.39,1.384,1.382,1.382,1.382,1.382,1.379,1.382,1.384,1.39,1.405,0,0,1.475,1.515,1.56,1.604,1.627,1.651,1.663,1.68,1.693,0,0,0,0,0,0,0,0,0,0,0,0,0,0,0,0,0,0,0,0,0,0,0,0,0,0,0,0,0,0,0,0,0,0,0,0,0,0,0,0,0,0,0,0,0,0,0,0,0,0,0,0,0,0,0,0,0,0,0,0,1.968,1.968,1.968,1.991,1.997,1.985,1.945,1.881,0,0,0,1.616,1.546,1.501,1.475,1.475,1.469,1.478,1.488,0,0,2.279,2.272,2.279,2.279,2.279,2.272,2.272,2.264,2.264,2.264,0,0,0,0,0,0,0,0,0,1.459,1.465,0,0,0,0,0,0,0,0,0,2.09,0,0,0,0,0,0,1.428,1.431,1.434,1.44,1.444,1.45,1.453,0,0,0,0,2.064,2.077,2.077,2.064,2.052,2.027,2.003,1.968,1.945,1.923,0,0,0,0,0,0,0,0,0,0,2.064,2.07,2.064,2.077,2.083,2.096,2.103,2.096,0,0,0,0,0,0,0,0,0,0,1.444,1.456,1.472,1.481,1.491,1.504,0,1.528,1.535,1.539,1.532,1.521,1.511,1.504,1.491,1.481,1.472,1.459,1.459,1.459,1.456,1.459,1.462,1.465,1.469,1.472,1.478,1.481,1.481,1.485,1.485,1.485,1.481,1.481,1.478,1.475,1.475,1.472,1.469,1.469,1.465,1.469,1.475,1.478,1.481,1.481,1.485,1.488,1.491,1.495,1.495,1.491,1.488,1.491,1.491,1.491,1.491,1.488,1.488,1.485,1.481,1.475,1.472,1.469,1.472,1.462,0,0,0,0,2.039,2.033,2.027,2.021,2.009,2.003,1.957,1.881,0,0,0,1.535,1.508,0,1.498,1.495,1.495,1.624,0,2.07,2.009,2.045,2.09,2.083,2.083,2.09,2.083,2.083,0,0,0,0,0,0,0,0,0,0,0,2.096,2.103,2.109,2.109,2.116,2.116,2.116,2.122,2.122,2.096,2.052,0,0,0,0,1.635,1.597,1.589,1.604,1.631,1.688,0,0,0,1.945,1.945,1.945,1.945,1.934,1.907,1.881,0,1.801,1.745,1.684,1.627,1.586,1.556,1.546,1.549,1.564,1.574,1.589,1.604,1.624,1.639,1.647,1.639,1.635,1.624,1.608,1.593,1.578,1.564,1.546,1.535,1.528,1.525,1.525,1.532,1.542,1.556,0,1.586,1.597,1.608,1.62,1.627,1.627,1.624,1.616,1.604,1.589,1.578,1.56,1.546,1.535,1.521,1.511,1.501,1.498,1.495,1.491,1.488,1.481,1.478,1.478,1.478,1.478,1.478,1.481,1.481,1.481,1.481,1.481,1.481
2.319,2.335,2.335,2.343,2.343,2.343,2.351,2.351,2.351,2.351,2.351,2.359,2.359,2.367,2.367,2.367,2.375,2.375,2.375,2.375,2.375,2.384,2.384,2.375,2.384,2.384,2.384,2.384,2.384,2.384,2.392,2.392,0,0,0,0,0,0,0,0,1.27,1.273,1.275,1.275,1.277,1.277,1.28,1.277,1.28,1.28,1.28,1.28,1.28,1.282,1.282,1.282,1.282,1.285,1.285,1.285,1.287,1.287,1.29,1.29,1.292,1.292,1.29,1.287,1.282,1.28,1.277,1.273,1.273,1.273,1.275,1.28,1.287,1.297,1.304,1.312,1.32,1.327,1.333,1.338,1.341,1.343,1.349,1.351,1.354,1.357,1.359,1.359,1.362,1.362,1.362,1.362,1.362,1.359,1.357,1.357,1.357,1.354,1.351,1.351,1.349,1.346,1.346,1.349,1.349,1.351,1.354,1.357,1.359,1.362,1.365,1.368,1.37,1.373,1.376,1.376,1.379,1.382,1.382,1.384,1.384,1.387,1.387,1.39,1.396,1.399,1.402,1.405,1.408,1.41,1.413,1.416,1.416,1.419,1.422,1.422,1.422,1.425,1.431,1.431,1.434,1.437,1.44,1.444,1.447,1.453,1.456,1.456,1.453,1.453,1.444,1.437,1.431,1.419,1.408,1.399,0,1.384,1.382,1.382,1.379,1.382,1.382,1.382,1.384,1.387,1.387,1.393,1.405,1.422,0,0,0,0,1.643,1.672,1.697,0,0,0,0,0,0,0,1.62,1.627,0,0,0,0,0,0,0,0,0,0,0,0,0,0,0,0,0,0,0,0,0,0,0,0,0,0,0,0,0,0,0,0,0,0,0,0,0,0,0,0,0,0,0,0,0,0,0,0,0,0,0,0,0,0,2.009,2.003,2.003,2.009,2.009,1.997,1.896,0,0,0,0,1.511,1.501,1.469,1.465,1.462,1.465,1.465,0,0,0,2.287,2.287,2.287,2.287,2.287,2.287,2.287,2.279,2.279,0,0,0,0,0,0,0,0,0,0,0,0,0,0,0,0,0,0,2.109,0,0,0,0,0,0,0,0,1.416,1.422,1.422,1.428,1.431,1.434,1.437,1.44,0,0,2.142,2.129,2.109,2.09,2.083,2.052,2.027,1.991,1.957,1.918,1.886,1.855,0,1.82,0,1.782,0,0,0,0,0,0,2.033,2.045,2.045,2.064,2.077,2.077,2.083,2.083,0,0,0,0,0,0,0,1.428,1.434,0,0,0,1.45,1.456,1.462,1.472,1.478,1.488,1.491,1.491,1.491,1.485,1.481,1.478,1.472,1.462,1.456,1.45,1.447,1.447,1.447,1.45,1.453,1.456,1.459,1.462,1.465,1.469,1.469,1.472,1.472,1.472,1.469,1.469,1.465,1.462,1.462,1.459,1.456,1.456,1.453,1.459,1.462,1.469,1.472,1.472,1.475,1.478,1.481,1.485,1.488,1.481,1.481,1.485,1.485,1.488,1.488,1.485,1.485,1.481,1.478,1.472,1.469,1.465,1.459,1.456,0,0,0,0,2.039,2.039,2.027,2.021,2.009,2.003,1.968,1.902,0,0,0,0,1.508,0,1.491,0,0,0,0,0,2.003,2.058,2.103,2.103,2.103,2.103,2.103,2.096,0,0,0,0,0,0,0,0,0,0,0,0,2.096,2.109,2.109,2.109,2.116,2.116,2.116,2.122,2.109,2.077,0,0,0,0,0,0,1.608,1.6,1.624,0,0,0,0,1.945,1.957,1.957,0,1.951,1.94,1.923,1.902,1.86,0,0,0,0,1.574,1.549,1.546,1.556,1.567,1.582,1.593,1.608,1.624,1.631,1.631,1.627,1.62,1.608,1.593,1.578,1.567,1.549,1.539,1.528,1.521,1.518,1.521,1.525,1.535,1.549,1.56,1.574,1.589,1.604,1.62,1.624,1.627,1.624,1.616,1.604,1.593,1.578,1.56,1.542,1.528,1.518,1.504,1.498,1.495,1.488,1.485,1.478,1.472,1.469,1.465,1.469,1.469,1.469,1.469,1.472,1.472,1.475,1.475
2.319,2.335,2.335,2.343,2.343,2.343,2.351,2.351,2.351,2.351,2.351,2.351,2.351,2.359,2.359,2.359,2.367,2.367,2.367,2.367,2.367,2.367,2.367,2.367,2.375,2.375,2.375,2.384,2.384,2.384,2.384,0,0,0,0,0,0,0,0,1.263,1.265,1.268,1.27,1.27,1.273,1.275,1.275,1.275,1.275,1.275,1.275,1.275,1.275,1.275,1.277,1.277,1.277,1.277,1.28,1.28,1.282,1.282,1.285,1.285,1.285,1.285,1.285,1.282,1.277,1.273,1.268,1.265,1.263,1.265,1.268,1.273,1.282,1.292,1.299,1.307,1.317,1.325,1.33,1.335,1.338,1.341,1.346,1.349,1.351,1.351,1.354,1.354,1.354,1.354,1.354,1.354,1.351,1.351,1.351,1.349,1.349,1.346,1.343,1.343,1.341,1.341,1.338,1.341,1.341,1.346,1.346,1.349,1.354,1.357,1.359,1.362,1.368,1.37,1.373,1.373,1.376,1.376,1.379,1.379,1.382,1.382,1.384,1.387,1.39,1.393,1.396,1.399,1.402,1.405,1.408,1.408,1.413,1.416,1.416,1.419,1.419,1.422,1.425,1.428,1.431,1.434,1.437,1.44,1.444,1.447,1.45,1.447,1.444,1.437,1.431,1.422,1.413,1.402,1.396,1.387,1.379,1.376,1.379,1.379,1.379,1.382,1.384,1.387,1.387,1.39,1.393,1.393,1.405,1.419,0,0,0,0,0,1.718,1.731,1.74,1.754,1.754,0,0,0,0,0,1.71,1.731,0,0,0,0,0,0,0,0,0,0,0,0,0,0,0,0,0,0,0,0,0,0,0,0,0,0,0,0,0,0,0,0,0,0,0,0,0,0,0,0,0,0,0,0,0,0,0,0,0,0,2.021,0,2.021,2.021,2.015,2.015,2.009,1.991,1.929,1.825,0,0,0,1.539,1.498,1.478,1.465,1.462,1.462,1.462,1.465,0,0,0,2.287,2.287,2.287,2.287,2.287,2.295,2.287,2.287,0,0,0,0,0,0,0,0,0,0,0,0,0,0,0,0,0,2.077,2.116,0,0,0,0,0,0,0,0,0,1.41,1.416,1.419,1.425,1.428,1.428,1.431,0,0,2.149,2.142,2.136,2.129,2.103,2.07,2.027,1.991,1.951,1.902,0,0,1.796,1.782,1.768,1.749,1.74,0,0,0,0,0,0,2.064,2.064,2.07,2.064,2.064,2.07,2.07,0,0,0,0,0,0,0,0,1.422,1.428,1.431,1.434,1.437,1.44,1.444,1.45,1.456,1.459,1.462,1.465,1.459,1.459,1.459,1.456,1.453,1.45,1.444,1.437,1.434,1.434,1.434,1.434,1.437,1.44,1.444,1.447,1.453,1.453,1.459,1.459,1.459,1.459,1.459,1.456,1.456,1.45,1.45,1.45,1.447,1.444,1.444,1.444,1.447,1.453,1.459,1.459,1.459,1.465,1.472,1.475,1.478,1.478,1.475,1.475,1.481,1.481,1.481,1.481,1.481,1.478,1.475,1.472,1.465,1.462,1.456,1.453,1.45,1.447,0,2.052,2.045,2.039,2.039,2.027,2.021,2.009,2.003,1.974,0,1.86,0,0,0,1.501,1.481,0,0,0,0,0,0,2.103,2.077,2.116,2.116,2.109,2.116,2.109,2.109,0,0,0,0,0,0,0,0,0,0,0,0,0,2.103,2.109,2.109,2.116,2.116,2.116,2.116,2.116,2.103,2.083,2.045,0,0,0,0,1.608,0,1.593,0,0,0,0,0,1.968,1.968,0,1.974,1.968,1.951,1.94,1.912,1.865,0,0,0,0,1.56,1.546,1.549,1.56,1.571,1.586,1.597,1.616,1.624,1.624,1.62,1.616,1.608,1.597,1.586,1.571,1.556,1.546,1.532,1.521,1.515,1.508,1.511,1.518,1.525,1.539,1.549,1.567,1.586,1.6,1.616,1.624,1.627,1.62,1.612,1.6,1.589,1.574,1.553,1.535,1.518,1.508,1.501,1.495,1.485,1.478,1.475,1.465,1.462,1.459,1.459,1.459,1.459,1.462,1.462,1.462,1.465,1.465
2.319,2.326,2.335,2.335,2.343,2.343,2.351,2.351,2.351,2.351,2.343,2.343,2.351,2.351,2.351,2.351,2.351,2.359,2.359,2.359,2.359,2.359,2.359,2.359,2.367,2.367,2.367,2.375,2.375,2.384,0,0,0,0,0,0,0,0,1.256,1.258,1.263,1.265,1.265,1.265,1.268,1.268,1.27,1.27,1.27,1.27,1.27,1.27,1.27,1.27,1.273,1.273,1.273,1.273,1.275,1.275,1.275,1.277,1.277,1.28,1.28,1.28,1.277,1.275,1.27,1.265,1.261,1.256,1.254,1.256,1.261,1.265,1.275,1.285,1.294,1.302,1.315,1.32,1.325,1.33,1.333,1.338,1.341,1.343,1.346,1.349,1.349,1.349,1.349,1.346,1.346,1.343,1.343,1.341,1.341,1.338,1.338,1.335,1.333,1.333,1.333,1.333,1.333,1.333,1.335,1.338,1.341,1.346,1.349,1.351,1.354,1.359,1.362,1.368,1.37,1.37,1.373,1.373,1.376,1.376,1.379,1.379,1.382,1.384,1.387,1.39,1.39,1.393,1.396,1.399,1.402,1.405,1.408,1.41,1.41,1.413,1.416,1.419,1.422,1.422,1.428,1.428,1.431,1.434,1.437,1.44,1.437,1.434,1.431,1.425,1.416,1.41,1.402,0,1.384,1.376,1.373,1.373,1.376,1.379,1.382,1.387,1.39,1.393,1.396,1.399,1.396,1.396,1.402,1.41,1.419,1.437,0,0,0,0,0,0,0,0,0,0,0,0,0,0,0,0,0,0,0,0,0,0,0,0,0,0,0,0,0,0,0,0,0,0,0,0,0,0,0,0,0,0,0,0,0,0,0,0,0,0,0,0,0,0,0,0,0,0,0,0,0,0,0,0,2.015,2.021,2.021,2.021,2.021,2.021,2.015,2.009,1.951,1.845,0,0,0,0,1.495,1.472,1.462,1.456,1.459,1.459,1.459,1.459,0,0,0,2.287,2.279,2.287,2.287,2.295,2.287,2.295,2.295,0,0,0,0,0,0,0,0,0,0,0,0,0,0,0,0,0,0,0,0,0,0,0,0,0,0,0,0,1.402,1.408,1.413,1.419,1.425,0,0,0,0,0,2.149,2.142,2.136,2.103,2.052,2.003,1.951,1.896,1.85,1.805,1.768,1.74,1.727,1.714,0,0,0,0,0,0,0,0,2.052,2.058,2.058,2.058,2.058,2.058,2.058,0,0,0,0,0,0,0,1.41,1.419,1.422,1.425,1.428,1.431,1.434,1.434,1.44,1.44,1.444,1.44,1.44,1.437,1.434,1.434,1.431,1.431,1.428,1.425,1.422,1.422,1.422,1.422,1.422,1.428,1.431,1.434,1.437,1.44,1.444,1.444,1.447,1.447,1.447,1.447,1.444,1.44,1.44,1.437,1.437,1.434,1.434,1.434,1.431,1.437,1.44,1.447,1.45,1.45,1.456,1.462,1.465,1.472,1.472,1.469,1.472,1.472,1.475,1.475,1.475,1.475,1.472,1.469,1.465,1.459,1.453,1.45,1.444,1.444,1.44,2.058,2.052,2.052,2.045,2.039,2.027,2.021,2.009,2.009,1.991,0,0,0,0,0,0,0,0,0,0,0,0,0,2.136,2.136,2.136,2.129,2.122,2.129,2.122,2.116,2.109,0,0,0,0,0,0,0,0,0,0,0,2.096,2.103,2.109,2.109,2.109,2.116,2.116,2.116,2.116,2.109,2.096,2.077,2.039,0,0,0,0,0,0,0,0,0,0,1.968,0,1.985,1.991,1.991,1.991,1.985,1.974,1.957,1.923,0,0,0,0,1.582,1.556,1.549,1.553,1.564,1.574,1.586,1.597,1.608,1.612,1.612,1.612,1.608,1.6,1.589,1.582,1.567,1.556,1.546,1.532,1.515,1.504,1.504,1.508,1.508,1.515,1.525,1.539,1.56,1.582,1.6,1.616,1.624,1.624,1.624,1.612,1.6,1.586,1.564,1.542,1.521,1.508,1.501,1.495,1.485,1.475,1.469,1.462,1.456,1.45,1.45,1.453,1.453,1.456,1.456,1.456,1.459,1.459
2.319,2.326,2.335,2.335,2.335,2.343,2.343,2.343,2.343,2.343,2.343,2.343,2.343,2.343,2.343,2.343,2.343,2.351,2.351,2.351,2.351,2.359,2.359,2.359,2.359,2.359,2.367,2.367,0,0,0,0,0,0,0,0,1.249,1.251,1.254,1.256,1.258,1.261,1.261,1.263,1.263,1.265,1.265,1.265,1.265,1.265,1.265,1.265,1.265,1.265,1.265,1.265,1.265,1.268,1.268,1.27,1.27,1.27,1.273,1.273,1.275,1.275,1.273,1.268,1.263,1.258,1.254,1.249,1.247,1.249,1.251,1.258,1.268,1.28,1.29,1.297,1.309,1.317,1.322,1.325,1.33,1.333,1.335,1.338,1.341,1.341,1.341,1.341,1.341,1.341,1.338,1.335,1.333,1.33,1.33,1.327,1.327,1.327,1.325,1.325,1.325,1.325,1.325,1.327,1.33,1.333,1.335,1.338,1.343,1.346,1.351,1.357,1.359,1.365,1.365,1.368,1.37,1.37,1.373,1.373,1.376,1.376,1.379,1.379,1.382,1.384,1.384,1.387,1.39,1.396,1.396,1.399,1.402,1.402,1.405,1.41,1.41,1.413,1.416,1.419,1.425,1.425,1.428,1.428,1.428,1.428,1.425,1.419,1.416,1.41,1.402,1.396,1.39,1.382,1.376,1.37,1.368,1.37,1.376,1.379,1.387,1.393,1.399,1.402,1.41,1.416,1.431,1.447,1.408,1.405,0,0,0,0,0,1.801,1.805,0,0,0,0,0,0,0,1.74,0,0,0,0,0,0,0,0,0,0,0,0,0,0,0,0,0,0,0,0,0,0,0,0,0,0,0,0,0,0,0,0,0,0,0,0,0,0,0,0,0,0,0,0,0,0,0,0,0,0,0,2.021,2.027,2.021,2.021,2.021,2.015,2.009,0,0,0,0,0,1.525,1.508,1.472,1.453,1.45,1.453,1.453,1.456,1.456,1.459,0,0,0,2.279,2.279,2.287,2.287,2.287,2.295,0,0,0,0,0,0,0,0,0,0,0,0,0,0,0,0,0,0,0,0,0,0,0,0,0,0,0,0,0,1.39,0,1.402,1.408,1.413,1.419,0,0,0,2.163,2.156,2.149,2.149,2.136,2.09,2.033,0,0,0,1.786,1.749,1.718,1.697,1.684,1.676,1.659,0,0,0,0,0,0,0,0,0,2.045,2.045,2.045,2.045,0,0,0,0,0,0,0,0,1.405,1.413,1.413,1.419,1.422,1.425,1.425,1.428,1.431,1.431,1.428,1.428,1.425,1.425,1.422,1.422,1.419,1.419,1.416,1.416,1.413,1.413,1.41,1.413,1.413,1.419,1.422,1.425,1.428,1.431,1.431,1.434,1.434,1.434,1.434,1.431,1.431,1.431,1.428,1.428,1.425,1.425,1.422,1.422,1.422,1.428,1.431,1.437,1.437,1.44,1.447,1.453,1.456,1.462,1.465,1.465,1.465,1.469,1.469,1.472,1.472,1.469,1.465,1.462,1.459,1.45,0,1.44,1.437,1.434,1.434,0,2.052,2.052,2.045,2.039,2.033,2.021,2.021,2.015,2.003,0,0,0,0,1.627,0,0,0,0,0,0,0,0,2.156,2.149,2.149,2.142,2.142,2.142,2.136,2.129,2.129,2.116,0,0,0,0,0,0,0,0,0,0,0,2.103,2.109,2.109,2.109,2.109,2.116,2.116,2.109,2.109,2.096,2.083,2.058,2.021,0,0,0,0,0,0,0,0,0,1.997,1.997,2.003,2.009,2.015,2.015,2.009,2.009,1.997,1.98,1.923,0,0,0,0,1.571,1.553,1.546,1.549,1.56,1.571,1.578,1.589,1.597,1.6,1.604,1.604,1.604,1.597,1.593,1.586,1.574,1.56,1.546,1.525,1.508,1.501,1.498,1.491,1.495,1.501,1.515,1.535,1.556,1.578,1.6,1.616,1.624,1.624,1.62,1.612,1.597,1.578,1.556,1.535,1.515,1.504,1.491,1.481,1.472,1.462,1.456,1.45,1.444,1.444,1.444,1.444,1.447,1.45,1.45,1.453,1.453
2.319,2.326,2.335,2.335,2.335,2.335,2.343,2.343,2.343,2.335,2.343,2.335,2.343,2.335,2.343,2.335,2.335,2.335,2.343,2.343,2.351,2.351,2.351,2.351,2.359,2.359,0,0,0,0,0,0,0,0,1.24,1.242,1.245,1.247,1.249,1.251,1.256,1.254,1.258,1.258,1.258,1.258,1.258,1.258,1.258,1.258,1.258,1.258,1.261,1.261,1.261,1.261,1.261,1.261,1.261,1.263,1.263,1.265,1.265,1.268,1.27,1.27,1.268,1.265,1.258,1.254,1.249,1.245,1.245,1.245,1.249,1.256,1.263,1.275,1.285,1.294,1.304,1.312,1.317,1.32,1.322,1.327,1.33,1.333,1.333,1.333,1.333,1.333,1.333,1.33,1.327,1.327,1.325,1.322,1.32,1.32,1.32,1.32,1.317,1.317,1.317,1.317,1.32,1.32,1.322,1.325,1.327,1.333,1.338,1.343,1.349,1.351,1.357,1.359,1.362,1.365,1.368,1.368,1.37,1.37,1.373,1.373,1.376,1.376,1.379,1.379,1.382,1.384,1.387,1.39,1.393,1.393,1.396,1.399,1.402,1.405,1.408,1.41,1.413,1.416,1.419,1.419,1.422,1.419,1.419,1.416,1.41,1.405,1.402,1.393,1.387,1.382,1.379,1.376,1.37,1.368,1.368,1.37,1.376,1.382,1.393,1.399,1.408,1.408,1.416,1.431,1.45,1.475,1.498,1.518,0,0,1.835,1.855,1.865,1.87,1.865,1.855,1.84,1.825,1.782,0,0,0,0,0,0,0,0,0,0,0,0,0,0,0,0,0,0,0,0,0,0,0,0,0,0,0,0,0,0,0,0,0,0,0,0,0,0,0,0,0,0,0,0,0,0,0,0,0,0,0,0,0,0,0,2.021,2.021,2.021,2.015,2.021,2.015,0,0,0,0,0,0,1.459,1.465,1.453,1.444,1.447,1.45,1.453,1.453,1.456,1.459,1.459,1.462,0,0,0,2.287,2.287,2.295,2.295,2.295,0,0,0,0,0,0,0,0,0,0,0,0,0,0,0,0,0,0,0,0,0,0,0,0,0,0,0,1.376,1.382,0,1.396,1.402,1.41,0,0,0,0,0,2.163,2.156,2.156,2.142,2.096,0,0,0,1.796,1.736,1.705,1.68,1.668,1.655,1.651,1.639,1.635,0,0,0,0,0,0,0,0,0,0,0,0,0,0,0,0,0,0,0,0,1.399,1.405,1.408,1.41,1.416,1.416,1.419,1.422,1.419,1.422,1.419,1.416,1.416,1.413,1.413,1.413,1.41,1.408,1.408,1.405,1.405,1.405,1.402,1.402,1.408,1.41,1.413,1.416,1.416,1.422,1.422,1.425,1.422,1.422,1.422,1.419,1.419,1.416,1.416,1.416,1.416,1.413,1.413,1.413,1.41,1.413,1.416,1.422,1.425,1.428,1.437,1.444,1.447,1.453,1.459,1.459,1.459,1.462,1.465,1.469,1.469,1.462,1.459,1.453,0,0,1.437,1.431,1.428,1.425,1.425,0,0,2.052,2.045,2.039,2.033,2.021,2.015,2.009,1.997,1.985,0,0,0,0,0,0,0,0,0,0,0,0,0,2.17,2.163,2.156,2.149,2.149,2.142,2.142,2.136,2.129,0,0,0,0,0,0,0,0,0,0,0,0,0,2.109,2.109,2.109,2.109,2.109,2.109,2.103,2.096,2.096,2.07,2.039,0,0,0,0,0,0,0,0,2.003,2.021,2.015,2.021,2.027,2.027,2.033,2.033,2.033,2.033,2.027,1.985,0,0,0,1.655,1.597,1.56,1.539,1.546,1.553,1.556,1.567,1.578,1.586,1.593,1.6,1.604,1.608,1.608,1.612,1.604,1.593,1.582,1.564,1.539,1.515,1.501,1.491,1.481,1.478,1.481,1.488,1.504,1.528,1.553,1.578,1.597,1.612,1.62,1.624,1.624,0,1.597,1.574,1.553,1.528,1.515,1.498,1.485,1.472,1.459,1.45,1.444,1.44,1.437,1.434,1.437,1.437,1.44,1.444,1.444,1.447
2.319,2.319,2.326,2.335,2.335,2.343,2.343,2.343,2.343,2.343,2.343,2.335,2.335,2.335,2.335,2.326,2.335,2.335,2.335,2.335,2.343,2.343,2.343,2.343,2.351,0,0,0,0,0,0,0,0,1.233,1.235,1.24,1.242,1.245,1.247,1.247,1.251,1.251,1.251,1.254,1.254,1.254,1.256,1.254,1.254,1.254,1.254,1.254,1.254,1.254,1.254,1.254,1.256,1.256,1.258,1.258,1.261,1.261,1.261,1.263,1.265,1.265,1.263,1.258,1.254,1.251,1.245,1.24,1.24,1.24,1.245,1.251,1.261,1.27,1.28,1.29,1.297,1.304,1.309,1.315,1.317,1.32,1.322,1.325,1.325,1.325,1.325,1.325,1.322,1.322,1.32,1.317,1.315,1.312,1.312,1.312,1.312,1.312,1.312,1.312,1.312,1.312,1.312,1.315,1.317,1.32,1.325,1.33,1.333,1.338,1.343,1.349,1.351,1.357,1.359,1.359,1.362,1.365,1.365,1.368,1.368,1.368,1.37,1.37,1.373,1.373,1.376,1.376,1.382,1.384,1.384,1.39,1.393,1.393,1.399,1.402,1.405,1.408,1.408,1.408,1.41,1.41,1.41,1.408,1.402,1.399,1.396,1.39,1.384,1.382,1.376,1.376,1.373,1.37,1.368,1.368,1.37,1.376,1.382,1.39,1.399,1.408,1.413,1.419,1.428,1.453,1.481,1.508,0,1.631,1.754,1.801,1.855,1.875,1.886,1.886,1.886,0,1.86,0,0,1.782,0,0,0,0,0,0,0,0,0,0,0,0,0,0,0,0,0,0,0,0,0,0,0,0,0,0,0,0,0,0,0,0,0,0,0,0,0,0,0,0,0,0,0,0,0,0,0,0,0,0,0,0,2.015,2.015,2.015,2.015,2.015,2.009,2.015,0,0,0,0,0,0,1.459,1.456,1.444,1.44,1.44,1.447,1.45,1.453,1.456,1.456,1.459,1.462,0,0,0,0,0,0,0,0,0,0,0,0,0,0,0,0,0,0,0,0,0,0,0,0,0,0,0,0,0,0,0,0,0,0,0,1.362,1.368,1.373,0,0,1.393,0,0,0,0,0,2.17,2.163,2.163,2.163,2.149,2.109,0,0,0,1.749,1.684,1.659,1.643,1.639,1.631,1.627,1.62,0,0,0,0,0,0,0,0,0,0,0,0,0,0,0,0,0,0,0,0,0,1.39,1.399,1.399,1.402,1.408,1.408,1.41,1.41,1.413,1.413,1.41,1.408,1.408,1.408,1.405,1.405,1.402,1.399,1.399,1.396,1.396,1.393,1.396,1.396,1.396,1.402,1.405,1.408,1.408,1.41,1.41,1.413,1.413,1.413,1.413,1.41,1.408,1.408,1.408,1.405,1.405,1.402,1.402,1.402,1.402,1.405,1.408,1.413,1.416,1.419,1.428,1.434,1.44,1.45,1.456,1.453,1.456,1.459,1.462,1.465,1.465,1.459,1.453,0,0,1.437,1.428,1.425,1.419,1.416,1.416,0,0,2.052,2.045,2.039,2.033,2.027,2.015,2.003,1.991,1.968,0,0,0,0,0,0,0,0,0,0,0,0,2.177,2.177,2.177,2.17,2.156,2.163,2.156,2.149,2.142,2.136,0,0,0,0,0,0,0,0,0,0,0,2.103,2.109,2.109,2.109,2.109,2.109,2.109,2.103,2.096,2.09,2.09,2.077,2.064,2.052,0,0,0,0,0,0,0,0,2.027,2.027,2.033,2.033,2.039,2.039,2.039,2.039,2.045,2.045,2.015,1.945,0,0,0,1.643,1.586,1.553,1.549,1.549,1.542,1.553,1.56,1.571,1.582,1.597,1.6,1.612,1.616,1.627,1.627,1.62,1.608,1.586,1.556,1.528,1.508,1.491,1.475,1.462,1.465,1.469,1.478,1.498,1.521,1.549,1.571,1.589,1.608,1.62,0,0,0,1.597,1.571,1.546,1.525,1.508,1.491,1.475,1.459,1.447,1.437,1.431,1.428,1.428,1.428,1.431,1.434,1.434,1.437,1.44
2.311,2.319,2.326,2.335,2.335,2.343,2.343,2.343,2.343,2.343,2.343,2.335,2.335,2.326,2.326,2.326,2.326,2.326,2.326,2.326,2.326,2.326,2.326,0,0,0,0,0,0,0,0,1.226,1.229,1.229,1.233,1.235,1.238,1.242,1.242,1.245,1.245,1.247,1.247,1.249,1.249,1.249,1.249,1.249,1.249,1.249,1.249,1.249,1.249,1.249,1.249,1.249,1.251,1.251,1.251,1.254,1.254,1.256,1.258,1.258,1.261,1.261,1.261,1.256,1.251,1.249,1.245,1.24,1.238,1.238,1.24,1.247,1.256,1.263,1.273,1.282,1.292,1.297,1.302,1.304,1.309,1.312,1.315,1.317,1.317,1.317,1.315,1.315,1.312,1.312,1.309,1.307,1.307,1.304,1.304,1.304,1.304,1.304,1.304,1.304,1.304,1.304,1.307,1.309,1.312,1.315,1.32,1.325,1.33,1.333,1.338,1.343,1.346,1.351,1.354,1.357,1.357,1.359,1.359,1.359,1.362,1.362,1.362,1.365,1.365,1.368,1.37,1.37,1.373,1.376,1.382,1.382,1.387,1.39,1.393,1.399,1.399,1.402,1.402,1.402,1.399,1.399,1.393,1.393,1.387,1.382,1.379,1.373,1.373,1.368,1.368,1.368,1.368,1.368,1.368,1.37,1.373,1.379,1.39,1.399,1.41,1.419,1.431,1.437,1.45,1.475,1.508,0,0,0,1.749,1.801,1.85,1.875,0,0,0,0,0,0,0,0,0,0,0,0,0,0,0,0,0,0,0,0,0,0,0,0,0,0,0,0,0,0,0,0,0,0,0,0,0,0,0,0,0,0,0,0,0,0,0,0,0,0,0,0,0,0,0,0,0,0,0,2.021,2.015,2.015,2.015,2.015,2.009,2.009,0,0,0,0,0,0,0,1.413,1.422,1.428,1.428,1.437,1.444,1.447,1.453,1.456,1.459,1.462,1.462,0,0,0,0,0,0,0,0,0,0,0,0,0,0,0,0,0,0,0,0,0,0,0,0,0,0,0,0,0,0,0,0,0,0,1.351,1.357,1.362,1.365,0,0,0,0,0,0,0,2.17,2.17,2.17,2.17,2.17,2.163,0,0,0,0,1.718,1.643,1.624,1.62,1.616,1.612,1.604,1.593,0,0,0,0,0,0,0,0,0,0,0,0,0,0,0,0,0,0,0,0,1.376,1.382,1.387,1.39,1.396,1.399,1.399,1.402,1.402,1.405,1.405,1.402,1.399,1.399,1.399,1.396,1.399,1.396,1.393,1.39,1.39,1.387,1.387,1.384,1.387,1.39,1.393,1.396,1.399,1.402,1.402,1.405,1.405,1.405,1.405,1.402,1.399,1.399,1.396,1.396,1.393,1.396,1.393,1.393,1.393,1.393,1.396,1.399,1.405,1.408,1.413,1.422,1.428,1.437,1.447,1.453,1.456,1.456,1.459,1.465,1.465,1.465,1.462,0,0,0,1.428,1.422,1.416,1.41,1.41,1.41,0,0,2.052,2.039,2.033,2.027,2.021,2.009,1.991,1.98,1.962,0,0,0,0,0,0,0,0,0,0,0,0,2.191,2.191,2.184,2.177,2.17,2.17,2.163,2.156,2.149,2.142,0,0,0,0,0,0,0,0,0,0,0,0,2.109,2.109,2.109,2.109,2.109,2.103,2.096,2.09,2.083,2.083,2.077,2.064,0,0,0,0,0,0,0,0,0,2.033,2.033,2.039,2.039,2.045,2.045,2.045,2.052,2.052,2.052,2.033,1.98,1.923,0,0,1.71,1.639,1.586,1.564,1.542,1.521,1.528,1.539,1.549,1.56,1.578,1.589,1.604,1.62,1.639,1.647,1.639,1.627,1.608,1.574,1.542,1.518,1.495,1.472,1.453,1.453,1.45,1.456,1.472,1.495,1.521,1.546,1.571,1.589,1.608,1.624,0,1.627,1.612,1.589,0,1.546,1.521,1.501,1.481,1.462,1.447,1.431,1.425,1.422,1.422,1.422,1.425,1.428,1.428,1.431,1.434
2.311,2.319,2.326,2.335,2.335,2.343,2.343,2.343,2.343,2.343,2.343,2.335,2.335,2.326,2.326,2.326,2.326,2.319,2.319,2.319,0,0,0,0,0,0,0,0,1.218,1.22,1.222,1.222,1.226,1.229,1.231,1.231,1.233,1.235,1.238,1.24,1.24,1.242,1.242,1.242,1.242,1.245,1.245,1.245,1.245,1.245,1.245,1.245,1.245,1.245,1.245,1.245,1.245,1.247,1.247,1.249,1.249,1.251,1.254,1.256,1.258,1.258,1.256,1.254,1.249,1.247,1.242,1.238,1.235,1.235,1.238,1.245,1.251,1.258,1.268,1.275,1.282,1.29,1.294,1.297,1.299,1.302,1.304,1.304,1.307,1.304,1.304,1.304,1.304,1.302,1.299,1.299,1.297,1.297,1.297,1.297,1.299,1.299,1.299,1.299,1.299,1.302,1.302,1.304,1.309,1.312,1.315,1.32,1.325,1.327,1.333,1.338,1.341,1.343,1.346,1.349,1.351,1.351,1.354,1.354,1.354,1.357,1.357,1.359,1.359,1.359,1.362,1.365,1.368,1.37,1.373,1.379,1.382,1.384,1.39,1.393,1.396,1.393,1.393,1.393,1.39,1.384,1.382,1.379,1.373,1.37,1.368,1.362,1.362,1.362,1.362,1.362,1.368,1.37,1.373,1.376,1.382,1.39,1.402,1.413,1.425,1.434,1.45,1.462,1.485,1.518,0,0,1.672,1.705,1.754,1.801,1.85,0,0,0,0,1.875,0,0,0,0,0,0,0,0,0,0,0,0,0,0,0,0,0,0,0,0,0,0,0,0,0,0,0,0,0,0,0,0,0,0,0,0,0,0,0,0,0,0,0,0,0,0,0,0,0,0,0,0,0,0,0,2.015,2.015,2.015,2.015,2.015,2.009,2.003,0,0,0,0,0,0,1.39,0,0,0,1.425,1.434,1.44,0,0,1.456,1.459,1.462,0,0,0,0,0,0,0,0,0,0,0,0,0,0,0,0,0,0,0,0,0,0,0,0,0,0,0,0,0,0,0,0,0,0,0,0,1.351,1.354,0,0,0,0,0,0,0,2.163,2.17,2.177,2.17,2.17,2.177,2.163,0,0,0,1.791,1.672,1.593,1.578,1.574,1.571,1.564,1.556,0,0,0,0,0,0,0,0,0,0,0,0,0,0,0,0,0,0,0,0,1.365,1.368,1.37,1.376,1.382,1.384,1.387,1.387,1.39,1.393,1.393,1.396,1.393,1.39,1.39,1.39,1.387,1.39,1.387,1.384,1.382,1.382,1.379,1.379,1.379,1.379,1.382,1.384,1.387,1.39,1.393,1.393,1.396,1.396,1.396,1.393,1.39,1.387,1.387,1.387,1.384,1.384,1.384,1.382,1.384,1.382,1.384,1.387,1.387,1.393,1.399,1.405,1.413,1.419,1.428,1.444,1.456,1.459,1.459,1.465,1.469,1.469,1.469,1.465,0,1.437,1.428,1.422,1.413,1.408,1.402,1.402,1.402,1.405,0,0,2.039,2.033,2.027,2.021,2.003,1.985,1.974,1.951,0,0,0,0,0,0,0,0,0,0,0,2.205,2.198,2.198,2.191,2.184,2.177,2.177,2.17,2.163,2.156,2.149,2.149,0,0,0,0,0,0,0,0,0,0,0,0,2.109,2.109,2.109,2.109,2.103,2.096,2.09,2.083,2.077,2.064,0,0,0,0,0,0,0,0,0,0,2.033,2.039,2.045,2.045,2.052,2.052,2.052,2.052,2.058,2.058,2.045,2.009,1.974,0,0,0,0,0,0,0,1.501,1.501,1.508,1.518,1.535,1.553,1.567,1.589,1.612,1.639,1.659,1.659,1.647,1.631,1.597,1.564,1.532,1.504,1.475,1.453,1.444,1.434,1.437,1.447,1.465,1.491,1.515,1.539,1.567,1.593,1.612,1.627,1.635,1.624,1.608,1.582,1.564,1.539,1.511,1.488,1.465,1.447,1.431,1.419,1.416,1.413,1.416,1.419,1.422,1.425,1.428,1.431
2.311,2.311,2.326,2.326,2.335,2.343,2.343,2.343,2.343,2.343,2.343,2.335,2.335,2.326,2.326,2.319,2.311,2.311,0,0,0,0,0,0,0,0,1.209,1.213,1.213,1.215,1.22,1.222,1.224,1.226,1.226,1.231,1.233,1.233,1.233,1.235,1.235,1.238,1.238,1.238,1.24,1.24,1.24,1.238,1.238,1.238,1.238,1.238,1.238,1.24,1.24,1.24,1.24,1.242,1.245,1.245,1.247,1.247,1.251,1.254,1.256,1.256,1.254,1.249,1.247,1.242,1.24,1.235,1.233,1.233,1.233,1.24,1.245,1.254,1.261,1.268,1.277,1.282,1.285,1.287,1.292,1.292,1.294,1.294,1.294,1.294,1.294,1.294,1.294,1.292,1.292,1.292,1.29,1.29,1.29,1.292,1.292,1.292,1.294,1.294,1.294,1.297,1.299,1.302,1.304,1.307,1.312,1.315,1.32,1.322,1.327,1.33,1.335,1.338,1.341,1.343,1.343,1.343,1.346,1.346,1.349,1.349,1.349,1.351,1.354,1.354,1.354,1.357,1.359,1.365,1.368,1.373,1.376,1.382,1.384,1.387,1.387,1.387,1.384,1.379,1.376,1.373,1.368,1.365,1.362,1.357,1.357,1.354,1.357,1.357,1.357,1.362,1.368,1.373,1.379,1.384,1.393,1.405,1.416,1.431,1.444,1.456,1.475,0,0,0,0,0,0,1.727,1.749,1.772,1.786,0,0,0,0,1.763,0,0,0,0,0,0,0,0,0,0,0,0,0,0,0,0,0,0,0,0,0,0,0,0,0,0,0,0,0,0,0,0,0,0,0,0,0,0,0,0,0,0,0,0,0,0,0,0,0,0,0,0,0,0,0,2.015,2.009,2.009,2.009,2.009,2.003,0,0,0,0,0,0,0,1.379,1.384,0,1.405,1.416,1.428,1.44,0,1.453,1.459,1.462,0,0,0,0,0,0,0,0,0,0,0,0,0,0,0,0,0,0,0,0,0,0,0,0,0,0,0,0,0,0,0,0,0,0,0,1.346,1.346,1.346,1.349,0,0,0,0,0,2.163,2.163,2.17,2.177,2.177,2.177,2.177,2.177,2.17,2.116,0,0,0,0,1.553,1.546,1.539,1.528,1.521,1.511,0,0,0,0,0,0,0,0,0,0,0,0,0,0,0,0,0,0,0,0,0,1.359,1.362,1.368,1.373,1.376,1.379,1.379,1.382,1.384,1.384,1.384,1.384,1.382,1.382,1.379,1.379,1.379,1.379,1.376,1.373,1.373,1.37,1.37,1.37,1.37,1.373,1.376,1.382,1.382,1.384,1.384,1.387,1.387,1.384,1.384,1.384,1.379,1.379,1.376,1.376,1.373,1.373,1.373,1.373,1.373,1.376,1.379,1.382,1.384,1.39,1.399,1.402,1.413,1.425,1.44,1.453,1.459,1.462,1.465,1.469,1.472,0,0,1.447,1.428,1.416,1.41,1.405,1.399,1.396,1.396,1.393,1.393,0,0,2.045,2.033,2.027,2.015,2.003,1.985,1.968,1.951,1.94,0,0,0,0,0,0,0,0,0,0,0,0,2.205,2.198,2.191,2.184,2.177,2.17,2.17,2.163,2.156,0,0,0,0,0,0,0,0,0,0,0,0,0,2.116,2.116,2.116,2.109,2.103,2.09,2.083,2.07,2.064,2.052,2.027,0,0,0,0,0,0,0,0,2.039,2.045,2.045,2.052,2.052,2.052,2.058,2.058,2.058,2.058,2.064,2.052,2.027,2.003,0,0,0,0,0,0,0,0,0,0,1.488,1.501,1.521,1.539,1.567,1.597,1.635,1.659,1.672,1.668,1.651,1.62,0,0,1.515,1.481,1.45,1.437,1.425,1.422,1.431,1.44,1.462,1.485,1.508,1.539,1.567,1.597,1.62,1.635,1.635,1.62,1.6,1.582,0,0,1.501,1.478,1.453,1.434,1.422,1.413,1.41,1.41,1.413,1.416,1.419,1.422,1.425
2.311,2.319,2.326,2.326,2.335,2.343,2.343,2.343,2.343,2.351,2.343,2.335,2.335,2.326,2.319,2.311,0,0,0,0,0,0,0,0,0,1.2,1.205,1.207,1.211,1.215,1.218,1.22,1.22,1.22,1.222,1.224,1.226,1.229,1.229,1.231,1.231,1.233,1.233,1.233,1.233,1.233,1.233,1.233,1.233,1.233,1.233,1.235,1.235,1.235,1.235,1.238,1.238,1.24,1.24,1.242,1.242,1.245,1.247,1.251,1.251,1.254,1.249,1.247,1.242,1.242,1.238,1.233,1.231,1.231,1.231,1.235,1.24,1.247,1.254,1.261,1.268,1.273,1.275,1.28,1.282,1.282,1.285,1.285,1.285,1.285,1.285,1.285,1.282,1.282,1.285,1.285,1.285,1.285,1.285,1.287,1.287,1.29,1.29,1.292,1.292,1.294,1.297,1.299,1.302,1.304,1.307,1.309,1.315,1.317,1.32,1.325,1.327,1.33,1.333,1.335,1.335,1.335,1.338,1.338,1.341,1.341,1.341,1.343,1.343,1.346,1.349,1.351,1.354,1.357,1.362,1.365,1.37,1.373,1.376,1.379,1.376,1.373,1.368,1.365,1.362,1.357,1.357,1.351,1.351,1.351,1.349,1.351,1.351,1.354,1.359,1.365,1.373,1.382,1.39,1.399,1.41,1.425,1.437,1.453,1.469,1.485,0,0,0,0,0,0,0,1.731,1.74,0,1.736,0,0,0,1.697,0,0,0,0,0,0,0,0,0,0,0,0,0,0,0,0,0,0,0,0,0,0,0,0,0,0,0,0,0,0,0,0,0,0,0,0,0,0,0,0,0,0,0,0,0,0,0,0,0,0,0,0,0,0,0,2.027,2.015,2.009,2.009,2.009,2.003,1.997,0,0,0,0,0,0,1.362,1.37,1.376,0,0,1.41,1.428,1.437,0,1.456,1.518,0,0,0,0,0,0,0,0,0,0,0,0,0,0,0,0,0,0,0,0,0,0,0,0,0,0,0,0,0,0,0,0,0,1.354,1.349,1.343,1.341,1.341,1.341,1.343,1.346,0,0,0,0,2.163,2.163,2.17,2.17,2.17,2.17,2.17,2.177,2.163,2.122,0,0,0,0,1.518,1.508,1.501,1.488,1.481,0,0,0,0,0,0,0,0,0,0,0,0,0,0,0,0,0,0,0,0,1.349,1.351,1.354,1.354,1.359,1.365,1.368,1.37,1.37,1.373,1.376,1.376,1.376,1.373,1.373,1.373,1.37,1.37,1.37,1.368,1.365,1.365,1.362,1.362,1.362,1.362,1.362,1.365,1.368,1.37,1.373,1.376,1.376,1.379,1.382,1.379,1.376,1.376,1.37,1.37,1.368,1.368,1.365,1.365,1.362,1.365,1.365,1.368,1.37,1.373,1.376,1.384,1.39,0,1.405,1.419,1.434,1.45,1.456,1.459,1.465,1.472,0,0,0,0,0,0,1.402,1.396,1.387,1.387,1.384,1.384,1.384,0,2.052,2.045,2.033,2.027,2.015,2.003,1.985,1.962,1.951,1.94,1.923,1.912,1.865,0,0,0,0,0,0,0,0,0,2.198,2.198,2.184,2.184,2.177,2.17,2.17,2.163,2.163,0,0,0,0,0,0,0,0,0,0,0,0,0,2.116,2.116,2.116,2.109,2.096,2.09,2.077,2.064,2.052,2.039,2.015,0,0,0,0,0,0,0,0,0,2.045,2.045,2.058,2.058,2.058,2.058,2.064,2.064,2.064,2.064,2.064,2.045,2.033,0,1.98,1.934,0,0,0,0,0,0,1.45,0,1.472,1.495,1.511,1.539,1.571,1.616,1.651,1.672,1.676,1.672,1.643,0,1.574,1.539,1.501,1.462,1.44,1.422,1.416,1.416,1.419,1.434,1.45,1.475,1.501,1.532,1.564,1.597,1.624,1.627,1.624,1.612,1.597,1.574,0,0,0,1.462,1.44,1.422,1.413,1.408,1.408,1.405,1.408,1.41,1.413,1.416
2.303,2.311,2.319,2.326,2.335,2.343,2.343,2.343,2.351,2.351,2.343,2.343,2.335,2.335,0,0,0,0,0,0,0,0,0,1.184,1.19,1.194,1.2,1.205,1.209,1.211,1.213,1.215,1.218,1.218,1.22,1.22,1.222,1.222,1.224,1.226,1.226,1.226,1.226,1.229,1.229,1.229,1.231,1.231,1.231,1.231,1.231,1.231,1.233,1.233,1.233,1.233,1.235,1.235,1.238,1.24,1.242,1.242,1.247,1.247,1.249,1.249,1.247,1.245,1.24,1.235,1.233,1.229,1.226,1.226,1.226,1.233,1.238,1.242,1.249,1.256,1.261,1.265,1.27,1.273,1.275,1.273,1.275,1.275,1.275,1.275,1.275,1.275,1.275,1.275,1.275,1.275,1.277,1.28,1.28,1.282,1.282,1.285,1.287,1.29,1.29,1.292,1.294,1.297,1.299,1.302,1.304,1.307,1.309,1.312,1.315,1.317,1.32,1.322,1.325,1.325,1.327,1.327,1.327,1.33,1.33,1.333,1.333,1.335,1.335,1.338,1.341,1.343,1.351,1.351,1.357,1.359,1.359,1.362,1.365,1.362,1.359,1.354,1.351,1.349,1.346,1.343,1.343,1.343,1.341,1.343,1.346,1.346,1.349,1.354,1.362,1.37,1.382,1.393,1.408,1.419,1.431,1.447,1.465,1.481,1.498,1.518,1.539,1.56,0,0,1.684,0,0,0,0,0,0,0,0,0,0,0,0,0,0,0,0,0,0,0,0,0,0,0,0,0,0,0,0,0,1.341,1.354,1.362,1.37,1.373,1.37,1.37,1.368,1.365,0,0,1.357,1.354,1.351,1.351,0,0,0,1.338,1.338,0,0,0,0,0,0,0,0,0,0,0,0,0,0,0,0,2.033,2.021,2.009,2.009,2.003,1.997,1.957,0,0,0,0,0,0,0,1.359,1.365,1.373,1.384,1.399,0,1.434,1.444,0,0,0,0,0,0,0,0,0,0,0,0,0,0,0,0,0,0,0,0,0,0,0,0,0,0,0,0,0,0,1.384,1.376,1.368,1.362,1.354,1.349,1.343,1.341,1.338,1.335,1.338,1.338,0,0,0,0,0,2.163,2.163,2.17,2.163,2.163,2.163,2.163,2.163,2.156,2.129,0,0,0,0,0,0,0,1.447,1.44,0,0,0,0,0,0,0,0,0,0,0,0,0,0,0,0,0,0,0,0,1.343,1.343,1.346,1.349,1.354,1.357,1.359,1.362,1.362,1.368,1.368,1.368,1.368,1.365,1.365,1.362,1.362,1.362,1.359,1.359,1.357,1.354,1.354,1.354,1.351,1.354,1.354,1.357,1.359,1.365,1.368,1.368,1.37,1.373,1.373,1.37,1.37,1.368,1.365,1.362,1.359,1.359,1.357,1.357,1.357,1.357,1.357,1.359,1.362,1.365,1.37,1.376,1.382,1.39,1.399,1.408,1.428,1.45,1.456,1.459,0,0,1.546,0,0,0,0,0,0,1.384,1.379,1.376,1.376,1.373,1.373,0,0,2.045,2.039,2.027,2.015,2.003,1.991,1.962,1.957,1.945,1.934,1.918,1.881,0,0,0,0,0,0,0,0,0,2.198,2.191,2.184,2.184,2.177,2.17,2.17,2.163,2.163,0,0,0,0,0,0,0,0,0,0,0,0,0,2.116,2.116,2.116,2.109,2.096,2.083,2.07,2.058,2.045,2.027,2.009,1.991,0,0,0,0,0,0,0,0,2.045,2.052,2.058,2.064,2.064,2.064,2.064,2.07,2.064,2.07,2.064,2.058,2.052,2.039,2.015,1.985,0,0,0,0,0,0,1.422,1.428,1.44,1.459,0,0,0,1.589,1.627,1.659,1.676,1.68,1.663,0,1.6,0,1.521,1.481,1.453,1.428,1.416,1.41,1.408,1.413,1.428,1.447,0,1.501,1.539,1.571,1.6,1.616,1.62,1.616,1.608,1.593,1.564,0,0,0,1.45,1.428,1.416,1.405,1.399,1.399,1.402,1.405,1.408,1.408
2.303,2.311,2.319,2.326,2.335,2.343,2.343,2.343,2.351,2.351,2.351,2.343,0,0,0,0,0,0,0,0,0,1.167,1.173,1.179,1.186,1.19,1.196,1.2,1.203,1.205,1.207,1.209,1.211,1.213,1.215,1.218,1.218,1.22,1.22,1.22,1.222,1.222,1.222,1.224,1.224,1.226,1.226,1.226,1.226,1.229,1.229,1.229,1.231,1.231,1.231,1.233,1.233,1.235,1.238,1.24,1.24,1.242,1.245,1.247,1.247,1.247,1.245,1.24,1.238,1.233,1.231,1.226,1.224,1.224,1.226,1.229,1.233,1.24,1.245,1.249,1.254,1.258,1.261,1.263,1.263,1.263,1.265,1.265,1.265,1.265,1.265,1.265,1.265,1.268,1.268,1.27,1.273,1.273,1.275,1.277,1.28,1.282,1.285,1.287,1.287,1.29,1.292,1.292,1.294,1.297,1.299,1.302,1.304,1.307,1.309,1.312,1.312,1.315,1.317,1.317,1.317,1.317,1.32,1.32,1.322,1.325,1.325,1.327,1.33,1.333,1.338,1.341,1.346,1.346,1.349,1.351,1.349,1.349,1.349,1.343,1.341,1.335,1.335,1.333,1.33,1.33,1.333,1.335,1.335,1.338,1.341,1.346,1.354,1.359,1.37,1.384,1.399,1.413,1.431,1.45,1.469,1.488,1.508,1.525,1.546,0,1.586,0,0,1.688,1.718,1.736,1.74,1.723,0,1.693,1.684,0,0,0,0,0,0,0,0,0,0,0,0,0,0,0,0,0,0,0,1.302,1.312,0,0,1.333,1.346,1.357,1.365,1.37,1.368,1.365,0,0,0,1.357,1.351,1.349,1.346,1.343,1.341,1.338,1.335,1.333,1.327,0,0,0,0,0,0,0,0,0,0,0,0,0,0,0,0,2.033,2.027,2.009,2.009,0,0,0,0,0,0,0,0,0,0,0,0,0,1.373,0,0,0,0,0,0,0,0,0,0,0,0,0,0,0,0,0,0,0,0,0,0,0,0,0,0,0,0,0,0,0,0,0,1.387,1.379,1.37,1.362,1.354,1.349,1.343,1.338,1.335,1.333,1.33,1.33,1.333,0,0,0,0,2.156,2.156,2.156,2.156,2.149,2.156,2.156,2.156,2.149,2.142,2.122,0,0,0,0,0,0,1.416,1.408,1.402,1.393,1.384,1.379,0,0,0,0,0,0,0,0,0,0,0,0,0,0,0,0,1.338,1.335,1.338,1.341,1.343,1.349,1.351,1.351,1.357,1.357,1.359,1.359,1.359,1.359,1.357,1.357,1.354,1.351,1.354,1.351,1.349,1.349,1.346,1.343,1.343,1.343,1.346,1.346,1.349,1.351,1.354,1.359,1.362,1.365,1.368,1.365,1.365,1.365,1.359,1.359,1.357,1.354,1.354,1.349,1.351,1.351,1.351,1.351,1.351,1.354,1.357,1.362,1.368,1.373,0,0,1.399,0,0,0,0,0,1.651,0,0,0,0,0,0,0,1.376,1.373,1.368,1.365,1.365,1.365,0,2.052,2.045,2.039,2.027,2.015,2.003,1.985,1.974,1.957,1.951,1.94,1.929,0,0,0,0,0,0,0,0,0,0,2.191,2.191,2.184,2.184,2.177,2.17,2.163,2.163,2.163,0,0,0,0,0,0,0,0,0,0,0,0,0,2.136,2.122,2.116,2.109,2.096,2.083,2.07,2.052,2.039,2.021,2.009,0,1.968,1.934,1.886,0,0,0,0,2.033,2.058,2.058,2.064,2.064,2.07,2.07,2.07,2.07,2.07,2.07,2.07,2.064,2.058,2.058,2.058,2.052,0,0,0,0,0,0,1.396,1.402,1.413,1.425,1.45,0,0,0,1.608,1.643,1.668,1.684,1.676,1.651,1.62,1.586,0,1.501,1.469,1.437,1.419,1.405,1.393,1.396,1.405,1.422,1.44,0,0,1.535,1.571,1.593,1.604,1.612,1.616,1.604,1.582,0,0,0,1.469,1.444,1.422,1.408,1.399,1.393,1.393,1.396,1.399,1.402
2.303,2.311,2.319,2.326,2.335,2.343,2.351,2.351,2.351,0,0,0,0,0,0,0,0,0,0,1.149,1.153,1.159,1.165,1.171,1.177,1.182,1.186,1.19,1.194,1.198,1.2,1.203,1.205,1.209,1.211,1.213,1.215,1.215,1.218,1.22,1.22,1.22,1.222,1.222,1.222,1.224,1.226,1.226,1.226,1.226,1.226,1.229,1.229,1.231,1.231,1.233,1.233,1.235,1.238,1.238,1.24,1.24,1.245,1.245,1.245,1.242,1.24,1.238,1.235,1.231,1.229,1.224,1.222,1.222,1.224,1.226,1.229,1.235,1.24,1.242,1.247,1.249,1.254,1.254,1.256,1.254,1.256,1.256,1.256,1.256,1.256,1.258,1.258,1.261,1.263,1.265,1.265,1.268,1.27,1.273,1.277,1.28,1.28,1.282,1.285,1.287,1.29,1.29,1.292,1.294,1.294,1.297,1.299,1.302,1.302,1.304,1.304,1.307,1.307,1.307,1.309,1.309,1.312,1.312,1.315,1.317,1.32,1.322,1.325,1.327,1.33,1.335,1.338,1.341,1.338,1.341,1.338,1.335,1.333,1.325,1.322,1.32,1.317,1.317,1.317,1.32,1.322,1.327,1.33,1.338,1.341,1.349,1.359,1.373,1.384,1.399,1.416,1.431,1.45,1.469,1.491,1.511,1.539,1.556,1.582,1.6,0,1.647,1.676,1.714,1.731,1.736,1.723,1.701,0,0,1.659,1.647,1.627,1.608,1.589,0,0,0,0,0,0,0,0,0,0,0,1.285,1.285,1.287,1.292,1.299,1.309,1.315,1.322,1.33,1.346,1.357,1.365,1.368,1.362,0,0,1.357,1.354,1.349,1.346,1.343,1.341,1.338,1.333,1.33,1.327,1.325,1.322,0,1.322,1.322,0,0,0,0,0,0,0,0,0,0,2.07,0,0,2.033,2.021,2.003,0,0,0,0,0,0,0,0,0,0,0,0,0,0,0,0,0,0,0,0,0,0,0,0,0,0,0,0,0,0,0,0,0,0,0,0,0,0,0,0,0,0,0,0,0,0,0,0,1.384,1.373,1.365,1.357,1.349,1.343,1.338,1.333,1.33,1.327,1.325,1.327,1.327,1.33,0,0,2.149,2.149,2.149,2.142,2.142,2.142,2.142,2.142,2.142,2.142,2.136,0,0,0,0,0,0,0,1.379,1.376,1.373,1.368,1.362,1.359,0,0,0,0,0,0,0,0,0,0,0,0,0,0,0,0,1.333,1.327,1.33,1.333,1.338,1.341,1.343,1.346,1.349,1.349,1.351,1.351,1.351,1.351,1.349,1.346,1.346,1.343,1.346,1.341,1.341,1.338,1.335,1.335,1.335,1.335,1.335,1.335,1.341,1.343,1.346,1.351,1.357,1.359,1.362,1.362,1.359,1.359,1.357,1.357,1.354,1.351,1.349,1.346,1.346,1.343,1.343,1.343,1.346,1.346,1.349,1.351,1.359,1.362,0,0,0,0,0,0,0,0,0,0,0,0,0,0,0,0,1.362,1.359,1.357,1.354,1.354,1.354,0,0,2.052,2.045,2.033,2.021,2.009,1.991,1.974,1.962,1.957,1.945,1.934,0,0,0,0,0,0,0,0,0,2.191,2.191,2.191,2.184,2.177,2.17,2.163,2.156,2.156,2.149,2.142,0,0,0,0,0,0,0,0,0,0,0,0,2.149,2.129,2.122,2.109,2.103,2.09,2.07,2.052,2.033,2.021,2.009,1.991,1.98,1.962,1.934,1.918,0,0,0,2.027,2.052,2.058,2.064,2.07,2.07,2.07,2.077,2.077,2.077,2.077,2.07,2.064,2.064,2.064,2.058,2.052,0,0,0,0,0,0,1.373,1.376,1.384,1.399,1.419,1.447,0,0,0,1.612,1.647,1.676,1.68,1.663,1.635,0,0,1.525,1.491,1.45,1.425,1.405,1.387,1.382,1.384,1.396,1.41,0,0,0,1.539,1.571,1.586,1.604,1.616,1.616,1.597,1.571,1.546,1.518,1.488,1.459,1.431,1.41,1.396,1.387,1.384,1.384,1.387,1.39
2.295,2.311,2.319,2.326,2.335,2.343,2.351,0,0,0,0,0,0,0,0,0,0,1.136,1.14,1.144,1.147,1.153,1.159,1.163,1.169,1.173,1.177,1.182,1.186,1.19,1.192,1.196,1.2,1.203,1.207,1.209,1.211,1.213,1.215,1.218,1.218,1.22,1.22,1.222,1.222,1.224,1.224,1.226,1.226,1.226,1.226,1.229,1.229,1.231,1.231,1.233,1.235,1.235,1.235,1.238,1.24,1.24,1.242,1.242,1.242,1.24,1.238,1.235,1.233,1.229,1.226,1.222,1.222,1.22,1.222,1.224,1.226,1.231,1.233,1.235,1.238,1.24,1.242,1.245,1.247,1.247,1.247,1.247,1.247,1.249,1.249,1.251,1.251,1.254,1.256,1.258,1.261,1.265,1.268,1.27,1.273,1.275,1.28,1.282,1.282,1.285,1.287,1.29,1.29,1.29,1.292,1.292,1.294,1.294,1.294,1.297,1.297,1.297,1.299,1.299,1.299,1.302,1.304,1.304,1.307,1.309,1.312,1.315,1.317,1.32,1.325,1.33,1.33,1.33,1.33,1.327,1.325,1.322,1.317,1.309,1.307,1.307,1.307,1.307,1.309,1.315,1.317,1.322,1.33,1.335,1.343,1.351,1.365,1.379,1.393,1.41,1.428,1.45,1.475,1.498,1.521,1.549,1.578,1.604,1.631,1.647,1.672,0,1.718,1.74,1.745,1.74,0,1.71,0,1.68,1.668,1.651,1.631,1.616,0,0,0,0,0,0,0,0,0,0,0,0,1.282,1.285,1.287,1.292,1.297,1.302,1.312,1.317,1.327,1.343,1.351,1.359,0,0,0,1.354,1.351,1.349,1.346,1.341,1.335,1.333,1.33,1.327,1.325,1.322,1.32,1.315,1.315,1.32,1.32,0,0,0,0,0,0,0,0,0,0,2.064,0,2.045,2.039,2.021,0,0,0,0,0,0,0,0,0,0,0,0,0,0,0,2.103,2.109,2.116,0,0,0,0,0,0,0,0,0,0,0,0,0,0,0,0,0,0,0,0,0,0,0,0,0,0,0,0,0,0,1.387,1.376,1.365,1.357,1.351,1.343,1.338,1.333,1.327,1.325,1.325,1.325,1.325,1.325,1.327,0,0,2.142,2.142,2.142,2.136,2.136,2.129,2.129,2.129,2.129,2.129,2.122,0,0,0,0,0,0,0,1.351,1.349,1.351,1.346,1.346,1.346,0,0,0,0,0,0,0,0,0,0,0,0,0,0,0,0,1.325,1.32,1.322,1.327,1.33,1.335,1.338,1.338,1.341,1.343,1.343,1.346,1.343,1.343,1.341,1.338,1.338,1.335,1.335,1.333,1.333,1.33,1.327,1.325,1.325,1.325,1.327,1.327,1.33,1.333,1.335,1.343,1.346,1.351,1.354,1.357,1.357,1.357,1.354,1.354,1.351,1.349,1.346,1.341,1.341,1.338,1.335,1.335,1.335,1.335,1.338,1.341,1.346,1.349,0,0,0,0,0,0,0,0,0,0,0,0,0,0,0,0,1.354,1.351,1.346,1.346,1.346,1.346,1.346,0,2.052,2.045,2.039,2.033,2.021,1.997,1.985,1.974,1.962,1.957,1.951,1.94,0,0,0,0,0,0,0,0,2.191,2.191,2.191,2.177,2.177,2.163,2.156,2.156,2.149,2.149,2.142,0,0,0,0,0,0,0,0,0,0,0,0,0,2.142,2.129,2.116,0,0,2.07,2.052,2.033,2.021,2.003,1.991,1.98,1.968,1.957,1.945,0,0,0,0,2.052,0,2.064,2.07,2.077,2.077,2.077,2.083,2.083,2.077,2.077,2.07,2.07,2.064,2.064,2.052,2.052,0,0,0,0,0,0,0,1.365,1.376,1.39,1.413,1.444,0,0,0,1.612,1.643,1.663,1.659,1.643,1.624,1.597,1.556,0,1.475,0,1.41,1.387,1.373,1.368,1.376,1.384,1.402,1.425,0,0,1.532,1.556,1.582,1.6,1.612,1.6,1.578,1.56,0,1.508,0,1.444,1.416,0,1.384,1.376,1.373,1.376,1.376
2.295,0,0,0,0,0,0,0,0,0,0,0,0,0,0,0,1.13,1.134,1.136,1.142,1.146,1.149,1.153,1.157,1.161,1.165,1.171,1.173,1.177,1.179,1.186,1.188,1.194,1.198,1.2,1.205,1.209,1.211,1.215,1.218,1.218,1.22,1.22,1.222,1.222,1.224,1.224,1.226,1.226,1.226,1.229,1.229,1.231,1.231,1.233,1.233,1.233,1.235,1.235,1.238,1.24,1.24,1.242,1.242,1.24,1.238,1.235,1.233,1.229,1.226,1.222,1.22,1.22,1.22,1.22,1.222,1.224,1.226,1.229,1.231,1.233,1.233,1.235,1.238,1.238,1.238,1.238,1.24,1.24,1.242,1.242,1.245,1.247,1.249,1.251,1.254,1.258,1.261,1.263,1.265,1.27,1.275,1.277,1.28,1.282,1.282,1.285,1.285,1.287,1.287,1.287,1.287,1.287,1.287,1.287,1.29,1.29,1.29,1.292,1.292,1.292,1.294,1.297,1.299,1.302,1.304,1.307,1.309,1.312,1.315,1.317,1.32,1.322,1.32,1.32,1.317,1.312,1.307,1.304,1.299,1.297,1.294,1.297,1.299,1.304,1.307,1.315,1.32,1.33,1.335,1.343,1.357,1.37,1.39,1.408,1.422,1.44,1.465,1.495,1.515,1.542,1.578,1.604,1.631,0,1.672,1.693,1.71,0,1.749,1.749,0,0,0,1.71,1.688,1.676,1.655,1.639,1.627,0,0,0,0,0,0,0,0,0,0,0,0,1.282,1.285,1.287,1.29,1.297,1.302,1.312,1.315,1.325,1.341,1.351,0,0,0,1.351,1.349,1.346,1.343,1.341,1.335,1.33,1.327,1.322,1.322,1.317,1.315,1.315,1.312,1.312,1.315,1.317,1.317,0,0,0,0,0,0,0,0,0,2.064,2.052,2.045,2.039,0,0,0,0,0,0,0,0,0,0,0,0,0,0,0,0,2.103,2.103,2.109,2.116,2.116,0,0,0,0,0,0,0,0,0,0,0,0,0,0,0,0,0,0,0,0,0,0,0,0,0,0,0,0,0,1.365,1.354,1.346,1.341,1.335,1.33,1.325,1.322,1.32,1.32,1.32,1.32,1.322,1.322,0,0,2.136,2.129,2.129,2.129,2.122,2.116,2.116,2.116,2.116,2.109,2.109,0,0,0,0,0,0,1.325,1.327,1.33,1.333,1.333,1.335,1.338,1.341,0,0,0,0,0,0,0,0,0,0,0,0,0,0,1.317,1.317,1.312,1.315,1.317,1.322,1.327,1.327,1.33,1.33,1.333,1.335,1.335,1.335,1.333,1.33,1.327,1.327,1.327,1.325,1.325,1.322,1.32,1.317,1.317,1.317,1.317,1.32,1.32,1.322,1.325,1.33,1.335,1.343,1.349,1.351,1.354,1.354,1.354,1.354,1.351,1.351,1.346,1.343,1.338,1.333,1.333,1.33,1.327,1.325,1.327,1.327,1.33,1.335,1.338,1.343,0,0,0,0,0,0,0,0,0,0,0,0,0,0,0,1.343,1.343,1.338,1.338,1.338,1.338,1.338,0,2.052,2.045,2.045,2.033,2.027,2.015,1.997,1.991,1.985,1.98,1.968,1.957,0,0,0,0,0,0,0,0,2.184,2.184,2.177,2.177,2.17,2.156,2.149,2.149,2.142,2.142,2.136,2.129,0,0,0,0,0,0,0,0,0,0,0,0,2.156,0,0,0,0,2.07,2.052,2.033,2.015,2.003,1.991,1.985,1.974,1.968,1.957,0,0,0,0,0,0,0,2.07,2.077,2.077,2.083,2.083,2.083,2.083,2.077,2.077,2.077,2.07,2.07,2.058,2.052,0,0,0,0,0,0,0,0,1.351,1.362,1.382,1.408,1.44,0,0,0,1.6,1.631,1.643,1.639,1.631,1.612,1.582,1.542,0,0,1.416,1.382,1.365,1.357,1.362,1.368,1.379,1.396,1.422,0,0,1.518,1.546,1.571,1.589,1.586,1.574,1.567,1.549,0,0,0,0,0,0,1.373,1.368,1.368,1.368
0,0,0,0,0,0,0,0,0,0,0,0,0,1.123,1.125,1.126,1.128,1.132,1.136,1.14,1.142,1.144,1.147,1.149,1.155,1.157,1.161,1.165,1.169,1.171,1.177,1.182,1.188,1.194,1.198,1.203,1.207,1.211,1.215,1.215,1.218,1.22,1.22,1.222,1.222,1.224,1.224,1.226,1.226,1.229,1.229,1.229,1.231,1.231,1.233,1.233,1.233,1.235,1.235,1.238,1.238,1.24,1.24,1.24,1.238,1.235,1.233,1.231,1.229,1.224,1.222,1.22,1.22,1.22,1.218,1.22,1.222,1.224,1.224,1.226,1.226,1.226,1.229,1.229,1.231,1.231,1.231,1.233,1.233,1.235,1.238,1.238,1.242,1.245,1.247,1.249,1.254,1.256,1.261,1.263,1.268,1.27,1.273,1.275,1.277,1.28,1.28,1.282,1.282,1.282,1.282,1.282,1.282,1.282,1.282,1.282,1.282,1.282,1.285,1.285,1.287,1.287,1.292,1.292,1.294,1.297,1.299,1.302,1.304,1.309,1.312,1.315,1.315,1.312,1.307,1.307,1.302,1.297,1.292,1.287,1.287,1.287,1.287,1.292,1.297,1.304,1.309,1.32,1.33,1.338,1.349,1.362,1.382,1.402,1.419,1.434,1.459,1.485,1.515,1.539,1.564,1.612,1.639,1.672,1.701,1.718,1.74,1.749,1.777,0,1.791,0,0,1.758,1.749,1.727,1.718,1.701,1.684,0,0,0,0,0,0,0,0,0,0,0,0,0,1.282,1.285,1.287,1.29,1.297,1.302,1.309,1.315,1.325,1.341,0,0,0,1.349,1.346,1.343,1.341,1.338,1.333,1.327,1.322,1.317,1.315,1.312,1.307,1.307,1.304,1.304,1.304,1.309,1.309,1.315,0,0,0,0,0,0,0,0,0,0,2.058,2.052,0,0,0,0,0,0,0,0,0,0,0,0,0,0,2.09,2.09,2.096,2.103,2.109,2.109,2.116,2.116,2.109,0,0,0,0,0,0,0,0,0,0,0,0,0,0,0,0,0,0,0,0,0,0,0,0,0,0,0,0,0,0,1.327,1.322,1.32,1.315,1.315,1.312,1.309,1.312,1.315,1.317,1.317,0,0,2.109,2.116,2.116,2.116,2.109,2.109,2.103,2.096,2.096,2.096,2.09,0,0,0,0,0,0,0,0,0,1.327,1.327,1.33,1.333,1.335,0,0,0,0,0,0,0,0,0,0,0,0,0,0,0,1.309,1.307,1.304,1.307,1.312,1.315,1.317,1.32,1.322,1.322,1.325,1.325,1.327,1.325,1.325,1.322,1.32,1.317,1.317,1.317,1.315,1.315,1.312,1.309,1.309,1.307,1.307,1.309,1.312,1.315,1.317,1.322,1.33,1.338,1.346,1.349,1.351,1.354,1.354,1.354,1.354,1.351,1.349,1.343,1.335,1.33,1.325,1.322,1.32,1.317,1.317,1.317,1.32,1.325,1.325,1.327,0,0,0,0,0,0,0,0,0,0,0,0,0,0,0,1.338,1.335,1.333,1.333,1.333,1.333,1.33,0,2.058,2.058,2.052,2.045,2.039,2.027,2.015,2.009,2.009,1.997,1.997,1.985,0,0,0,0,0,0,0,2.184,2.177,2.177,2.177,2.17,2.163,2.156,2.149,2.142,2.136,2.129,2.122,2.122,2.122,0,0,0,0,0,0,0,0,0,0,0,2.163,2.142,0,0,0,2.07,2.052,2.027,2.015,2.003,1.997,1.985,1.98,1.968,1.968,0,0,0,0,0,0,0,2.077,2.077,2.083,2.083,2.083,2.083,2.083,2.077,2.077,2.077,2.07,2.07,2.058,2.058,2.052,0,0,0,0,0,0,0,1.341,1.346,1.359,1.379,1.405,0,0,0,1.564,1.597,1.62,1.631,1.635,1.631,1.608,1.567,0,0,0,1.382,1.359,1.346,1.349,1.349,1.357,1.368,1.387,1.41,0,0,1.508,1.535,1.56,1.567,1.564,1.564,1.56,1.549,0,1.488,1.45,0,0,1.37,1.362,1.357,1.357
0,0,0,0,0,0,0,0,1.121,1.121,1.121,1.119,1.121,1.123,1.125,1.126,1.13,1.132,1.134,1.136,1.138,1.14,1.142,1.144,1.147,1.151,1.153,1.157,1.159,1.165,1.171,1.175,1.184,1.188,1.194,1.2,1.205,1.209,1.213,1.218,1.218,1.22,1.22,1.222,1.222,1.224,1.224,1.226,1.229,1.229,1.229,1.229,1.231,1.231,1.233,1.233,1.235,1.235,1.235,1.238,1.238,1.24,1.24,1.238,1.235,1.233,1.231,1.229,1.224,1.222,1.22,1.215,1.215,1.218,1.218,1.218,1.22,1.22,1.22,1.222,1.22,1.22,1.222,1.222,1.222,1.222,1.224,1.224,1.226,1.229,1.231,1.233,1.235,1.238,1.242,1.245,1.249,1.251,1.256,1.261,1.263,1.265,1.27,1.273,1.273,1.275,1.275,1.275,1.275,1.275,1.275,1.275,1.275,1.275,1.275,1.275,1.275,1.275,1.277,1.277,1.28,1.282,1.285,1.287,1.29,1.292,1.294,1.297,1.299,1.304,1.307,1.307,1.307,1.304,1.299,1.297,1.292,1.29,1.282,1.277,1.277,1.28,1.282,1.287,1.292,1.299,1.307,1.32,1.33,1.343,1.357,1.373,1.393,1.416,1.434,1.456,1.475,1.508,0,0,0,0,0,0,1.736,1.758,1.772,1.782,1.81,0,1.82,0,0,1.791,1.772,1.754,1.74,1.727,0,0,0,0,0,0,0,0,0,0,0,0,0,0,1.282,1.285,1.285,1.29,1.294,1.299,1.307,1.312,0,0,0,0,0,1.341,1.338,1.335,1.333,1.33,1.322,1.317,1.309,1.304,1.302,1.299,1.297,1.297,1.297,1.297,1.299,1.304,1.307,1.312,1.317,0,0,0,0,0,0,0,0,0,0,0,0,0,0,0,0,0,0,0,0,0,0,0,0,0,2.09,2.096,2.096,2.103,2.109,2.109,2.116,2.116,2.109,0,0,0,0,0,0,0,0,0,0,0,0,0,0,0,0,0,0,0,0,0,0,0,0,0,0,0,0,0,0,1.299,0,1.294,1.297,1.297,1.299,1.302,1.304,1.307,1.309,0,0,0,0,2.103,2.103,2.103,2.096,2.096,2.09,2.083,2.083,2.077,2.077,0,0,0,0,0,0,0,0,0,0,0,0,0,0,0,0,0,0,0,0,0,0,0,0,0,0,0,0,1.299,1.299,1.297,1.297,1.299,1.304,1.307,1.312,1.312,1.315,1.317,1.317,1.317,1.317,1.317,1.315,1.312,1.309,1.309,1.309,1.307,1.307,1.307,1.304,1.302,1.302,1.299,1.299,1.302,1.304,1.307,1.309,1.317,1.325,1.333,1.343,1.349,1.351,1.351,1.354,1.354,1.354,1.349,1.346,1.341,1.33,1.325,1.317,1.312,1.309,1.307,1.307,1.309,1.309,1.312,1.315,0,0,0,0,0,0,0,0,0,0,0,0,0,0,0,0,1.327,1.325,1.322,1.322,1.322,1.322,1.322,0,2.058,2.058,2.058,2.052,2.045,2.039,2.027,2.027,2.027,2.021,2.015,2.015,0,0,0,0,0,0,0,0,2.177,2.177,2.17,2.163,2.163,2.149,2.142,2.136,2.129,2.122,2.116,2.116,2.109,0,0,0,0,0,0,0,0,0,0,2.191,2.17,2.142,2.122,2.103,2.09,2.07,2.045,2.027,2.021,2.009,2.003,1.997,1.991,1.98,1.98,0,0,0,0,0,0,0,0,2.083,2.083,2.083,2.083,2.083,2.083,2.077,2.077,2.07,2.07,2.07,2.058,2.058,2.052,0,2.045,0,0,0,0,0,0,1.338,1.346,1.357,1.382,1.41,0,0,0,1.546,1.582,1.6,1.616,1.627,1.62,1.589,0,0,0,0,1.354,1.343,1.341,1.338,1.341,1.349,1.362,1.382,0,0,0,1.508,1.535,1.553,1.56,1.567,1.564,1.56,1.542,0,0,0,0,1.376,1.359,1.349,1.343
0,0,0,0,0,0,1.125,1.123,1.123,1.123,1.123,1.121,1.123,1.125,1.126,1.128,1.128,1.132,1.132,1.134,1.136,1.136,1.138,1.14,1.144,1.146,1.147,1.149,1.153,1.157,1.163,1.171,1.177,1.184,1.19,1.198,1.203,1.209,1.213,1.218,1.218,1.22,1.22,1.222,1.222,1.224,1.226,1.226,1.229,1.229,1.229,1.229,1.231,1.231,1.233,1.233,1.235,1.235,1.235,1.235,1.238,1.238,1.238,1.235,1.233,1.231,1.229,1.224,1.222,1.22,1.215,1.213,1.213,1.215,1.213,1.215,1.215,1.215,1.215,1.215,1.215,1.215,1.215,1.215,1.215,1.215,1.218,1.218,1.22,1.222,1.224,1.226,1.229,1.231,1.235,1.238,1.242,1.247,1.249,1.254,1.258,1.261,1.263,1.265,1.265,1.268,1.268,1.268,1.268,1.268,1.265,1.265,1.265,1.265,1.265,1.265,1.265,1.265,1.268,1.27,1.273,1.275,1.277,1.28,1.285,1.287,1.29,1.292,1.294,1.297,1.299,1.302,1.297,1.294,1.29,1.287,1.282,1.277,1.273,1.268,1.268,1.27,1.273,1.28,1.287,1.297,1.307,1.32,1.335,1.349,0,1.382,0,0,0,0,0,0,0,0,0,1.688,1.727,0,1.772,1.796,1.805,1.81,1.845,0,1.87,1.86,1.845,1.84,1.825,1.81,1.801,1.786,1.772,0,0,0,0,0,0,0,0,0,0,0,0,0,0,1.285,1.285,1.29,1.292,1.297,0,0,0,0,0,0,1.338,1.335,1.33,1.325,1.322,1.32,1.312,1.304,1.299,1.294,1.29,1.287,1.287,1.287,1.29,1.29,1.294,1.299,1.304,1.309,0,0,0,0,0,0,0,0,0,0,0,0,0,0,0,0,0,0,0,0,0,0,0,0,0,0,2.09,2.096,2.096,2.103,2.103,2.109,2.116,2.116,2.109,0,0,0,0,0,0,0,0,0,0,0,0,0,0,0,0,0,0,0,0,0,0,0,0,0,0,0,0,0,0,0,1.268,1.273,1.275,1.28,1.285,1.29,1.297,0,0,0,0,0,2.083,2.083,2.09,2.083,2.083,2.077,2.077,2.07,2.064,2.064,2.058,0,0,0,0,0,0,0,0,0,0,0,0,0,0,0,0,0,0,0,0,0,0,0,0,0,0,0,0,1.287,1.29,1.29,1.292,1.292,1.297,1.299,1.304,1.304,1.307,1.307,1.309,1.309,1.309,1.307,1.304,1.304,1.302,1.299,1.299,1.299,1.297,1.297,1.294,1.292,1.292,1.292,1.292,1.294,1.294,1.299,1.302,1.309,1.317,1.325,1.338,1.343,1.351,1.354,1.354,1.354,1.351,1.346,1.343,0,1.322,1.317,1.309,1.304,1.299,1.299,1.297,1.299,1.299,1.302,1.304,0,0,0,0,0,0,0,0,0,0,0,0,0,0,0,0,0,0,1.312,1.312,1.312,1.312,1.312,0,2.064,2.064,2.058,2.058,2.058,2.045,2.039,2.039,2.045,2.045,2.039,2.033,0,0,0,0,0,0,0,0,2.17,2.163,0,0,2.156,2.142,2.136,2.122,2.122,2.116,2.109,2.109,0,0,0,0,0,0,0,0,0,0,0,0,0,2.136,2.116,2.096,2.083,2.064,2.045,2.033,2.021,2.015,2.009,2.003,2.003,1.997,0,0,0,0,0,0,0,0,0,0,0,2.083,2.083,2.083,2.083,2.077,2.07,2.07,2.064,2.064,2.058,2.058,2.052,2.052,2.045,0,0,0,0,0,0,0,1.335,1.341,1.359,1.384,1.408,1.437,0,1.504,1.542,1.567,1.589,1.612,1.624,1.608,1.574,0,0,0,0,1.338,1.335,1.33,1.33,1.335,1.346,1.354,1.37,0,1.431,0,1.501,1.528,1.542,1.56,1.564,1.567,1.556,0,0,0,0,1.384,1.357,1.343,1.335
0,0,0,0,0,1.128,1.126,1.126,1.126,1.125,1.125,1.125,1.125,1.126,1.128,1.128,1.13,1.13,1.132,1.132,1.134,1.134,1.134,1.136,1.138,1.14,1.142,1.144,1.147,1.151,1.157,1.165,1.171,1.179,1.188,1.194,1.203,1.209,1.213,1.218,1.218,1.22,1.22,1.222,1.222,1.224,1.224,1.226,1.226,1.229,1.229,1.229,1.231,1.231,1.233,1.233,1.233,1.233,1.233,1.235,1.235,1.238,1.235,1.233,1.231,1.229,1.226,1.222,1.22,1.215,1.213,1.211,1.211,1.211,1.209,1.209,1.211,1.211,1.211,1.209,1.209,1.209,1.209,1.209,1.209,1.209,1.209,1.211,1.213,1.215,1.215,1.218,1.222,1.224,1.229,1.233,1.238,1.24,1.245,1.249,1.251,1.251,1.256,1.256,1.256,1.256,1.256,1.256,1.258,1.258,1.258,1.256,1.256,1.256,1.256,1.256,1.258,1.258,1.261,1.263,1.263,1.27,1.273,1.275,1.28,1.282,1.285,1.287,1.29,1.292,1.292,1.292,1.29,1.282,1.28,1.275,1.27,1.265,1.261,1.261,1.261,1.263,1.268,1.273,1.282,1.294,1.304,1.32,1.335,0,1.368,0,0,0,0,0,0,0,0,0,0,0,0,0,0,1.835,0,0,0,0,1.907,0,1.896,1.886,1.875,1.87,1.87,1.855,0,0,0,0,0,0,0,0,0,0,0,0,0,0,0,0,0,1.287,1.29,0,0,0,0,0,0,0,1.325,1.322,1.32,1.317,1.312,1.309,1.302,1.294,1.287,1.282,1.277,1.275,1.277,1.277,1.28,1.282,1.287,1.29,1.297,0,0,0,0,0,0,0,0,0,0,0,0,0,0,0,0,0,0,0,0,0,0,0,0,0,2.083,2.083,2.09,2.09,2.096,2.103,2.103,2.103,2.116,2.116,0,0,0,0,0,0,0,0,0,0,0,0,0,0,0,0,1.287,1.287,0,0,0,0,0,0,0,0,0,0,0,0,0,0,1.247,1.254,1.261,1.268,1.273,1.277,1.287,0,0,0,0,0,2.07,2.07,2.07,2.07,2.07,2.064,2.064,2.058,2.058,2.052,2.045,0,0,0,0,0,0,0,0,0,0,0,0,0,0,0,0,0,0,0,0,0,0,0,0,0,0,0,0,1.282,1.28,1.285,1.285,1.287,1.29,1.294,1.297,1.297,1.299,1.299,1.302,1.299,1.299,1.299,1.297,1.294,1.292,1.292,1.292,1.29,1.29,1.29,1.287,1.285,1.285,1.285,1.285,1.287,1.287,1.292,0,1.299,1.309,1.32,1.333,1.343,1.349,1.354,1.357,1.354,0,0,0,1.325,0,0,0,1.294,1.292,1.29,1.29,1.29,1.292,1.294,0,0,0,0,0,0,0,0,0,0,0,0,0,0,0,0,0,0,0,1.302,1.302,1.302,1.302,1.302,0,2.064,2.064,2.07,2.07,2.064,2.058,2.052,2.052,2.058,2.058,2.052,2.052,0,0,0,0,0,0,0,2.163,2.163,2.163,2.163,2.156,2.149,2.136,2.129,2.122,2.116,2.109,2.109,2.103,0,0,0,0,0,0,0,0,0,0,0,2.177,2.149,2.122,2.109,2.096,2.083,2.064,2.045,2.033,2.027,2.021,2.021,2.015,2.015,2.009,2.015,0,0,0,0,0,0,0,0,0,0,0,2.083,2.083,2.077,2.077,2.07,2.064,2.064,2.064,2.058,2.058,2.052,2.045,2.045,0,0,0,0,0,0,0,0,1.327,1.341,1.362,1.382,1.402,1.428,1.453,0,1.515,1.564,0,1.612,0,0,0,0,0,0,1.335,1.33,1.325,1.322,1.325,1.33,1.338,1.346,1.365,1.39,1.425,0,1.498,1.521,1.542,1.556,1.567,1.56,1.539,1.508,0,0,0,1.365,1.341,1.33
0,0,0,0,1.13,1.13,1.128,1.128,1.128,1.128,1.126,1.126,1.126,1.126,1.128,1.128,1.128,1.13,1.13,1.13,1.13,1.13,1.132,1.132,1.134,1.136,1.136,1.14,1.142,1.146,1.153,1.161,1.169,1.177,1.186,1.194,1.203,1.209,1.215,1.218,1.218,1.22,1.22,1.222,1.222,1.224,1.224,1.224,1.226,1.226,1.226,1.229,1.229,1.231,1.231,1.231,1.233,1.233,1.233,1.235,1.235,1.238,1.238,1.235,1.233,1.229,1.226,1.222,1.22,1.215,1.211,1.209,1.207,1.207,1.205,1.205,1.205,1.205,1.205,1.203,1.203,1.203,1.203,1.203,1.205,1.203,1.203,1.205,1.207,1.209,1.211,1.211,1.215,1.218,1.222,1.226,1.229,1.233,1.235,1.24,1.242,1.245,1.249,1.249,1.249,1.249,1.251,1.251,1.251,1.251,1.249,1.249,1.247,1.249,1.247,1.249,1.249,1.251,1.254,1.256,1.258,1.263,1.265,1.273,1.277,1.28,1.282,1.285,1.285,1.285,1.285,1.282,1.275,1.27,1.265,1.258,1.256,1.254,1.249,1.249,1.249,1.254,1.258,1.265,1.273,1.285,1.294,0,1.327,0,0,0,0,0,0,0,0,0,0,0,0,0,0,0,0,0,0,0,0,1.912,1.923,0,0,1.929,1.923,1.929,1.934,0,0,0,0,0,0,0,0,0,0,0,0,0,0,0,0,0,0,0,0,0,0,0,0,0,1.312,1.315,1.312,1.312,1.309,1.304,1.302,1.299,1.29,1.282,1.277,1.27,1.268,1.268,1.268,1.27,1.27,1.275,1.28,1.282,1.287,0,0,0,0,0,0,0,0,0,0,0,0,0,0,0,0,0,0,0,0,0,0,0,0,0,2.077,2.083,2.083,2.09,2.096,2.096,2.096,2.103,2.109,0,0,0,0,0,0,0,0,0,0,0,0,0,0,0,0,1.27,1.273,1.273,0,0,0,0,0,0,0,0,0,0,0,0,1.207,1.215,1.224,1.238,1.247,1.254,1.261,0,0,0,0,0,0,2.052,2.052,2.058,2.058,2.058,2.058,2.058,2.052,2.052,2.045,2.039,2.039,0,0,0,0,0,0,0,0,0,0,0,0,0,0,0,0,0,0,0,0,0,0,0,0,0,0,0,0,1.275,1.275,1.275,1.277,1.28,1.285,1.287,1.29,1.292,1.292,1.292,1.292,1.292,1.292,1.29,1.287,1.285,1.282,1.282,1.282,1.282,1.28,1.28,1.28,1.277,1.277,1.277,1.277,1.28,1.282,1.285,0,1.294,1.304,1.312,1.33,1.341,1.346,1.351,0,0,0,0,1.327,0,0,0,0,1.287,1.285,1.28,1.282,1.282,1.282,1.285,1.285,0,0,0,0,0,0,0,0,0,0,0,0,0,0,0,0,0,0,0,0,1.292,1.292,1.292,0,2.07,2.07,2.07,2.07,2.07,2.064,2.064,2.064,2.07,2.07,2.064,2.064,2.064,0,0,0,0,0,0,0,2.156,2.149,2.149,2.142,2.136,2.122,2.116,2.116,2.109,2.109,2.103,2.096,2.096,2.096,0,0,0,0,0,0,0,0,0,0,2.142,2.122,2.103,2.09,2.083,2.064,2.045,2.039,2.033,2.027,2.021,2.021,2.021,2.015,2.021,0,0,0,0,0,0,0,0,0,0,0,0,0,2.077,2.077,2.07,2.064,2.064,2.058,2.052,2.052,2.052,2.052,2.052,2.045,0,0,0,0,0,0,0,1.325,1.33,1.346,1.357,1.376,1.396,1.41,0,0,0,0,1.549,0,0,0,0,0,0,1.327,1.325,1.32,1.317,1.315,1.317,1.32,1.325,1.338,1.357,1.382,1.419,0,1.485,1.511,1.528,1.546,1.542,1.528,1.501,0,0,0,1.365,0,1.325
0,0,0,0,1.132,1.132,1.13,1.128,1.128,1.13,1.128,1.128,1.128,1.128,1.128,1.128,1.128,1.128,1.128,1.128,1.13,1.128,1.128,1.13,1.13,1.132,1.134,1.136,1.138,1.144,1.151,1.159,1.167,1.175,1.184,1.192,1.2,1.209,1.213,1.215,1.218,1.22,1.22,1.22,1.222,1.222,1.222,1.224,1.224,1.226,1.226,1.226,1.229,1.229,1.231,1.233,1.233,1.233,1.235,1.238,1.238,1.24,1.24,1.238,1.235,1.231,1.229,1.224,1.22,1.215,1.211,1.207,1.205,1.203,1.2,1.198,1.2,1.198,1.198,1.198,1.196,1.196,1.196,1.196,1.198,1.196,1.198,1.2,1.2,1.203,1.205,1.207,1.209,1.211,1.213,1.218,1.22,1.224,1.229,1.231,1.233,1.235,1.238,1.238,1.24,1.24,1.24,1.24,1.24,1.24,1.238,1.238,1.238,1.238,1.238,1.24,1.24,1.242,1.245,1.247,1.249,1.254,1.258,1.261,1.268,1.27,1.273,1.273,1.275,1.275,1.273,1.265,1.263,1.256,1.249,1.247,1.242,1.24,1.238,1.238,1.238,1.242,1.247,1.254,1.263,1.273,1.28,1.292,1.304,1.317,0,0,0,0,0,0,0,0,0,0,0,0,0,0,0,0,0,0,0,0,0,0,1.968,0,0,0,0,0,0,0,0,0,0,0,0,0,0,0,0,0,0,0,0,0,0,0,0,0,0,0,0,0,0,1.297,1.297,1.299,1.297,1.294,1.292,1.287,1.28,1.273,1.265,1.261,1.258,1.258,1.258,1.261,1.263,1.265,1.27,1.275,0,0,0,0,0,0,0,0,0,0,0,0,0,0,0,0,0,0,0,0,0,0,0,0,0,0,2.077,2.077,2.083,2.09,2.09,2.096,2.096,2.103,0,0,0,0,0,0,0,0,0,0,0,0,0,0,1.258,1.258,1.254,1.256,1.258,0,0,0,0,0,0,0,0,0,0,0,0,1.186,1.196,1.207,1.213,1.224,1.231,1.24,1.247,1.258,0,0,0,0,0,2.045,2.045,2.045,2.045,2.052,2.052,2.052,2.045,2.039,2.039,2.039,0,0,0,0,0,0,0,0,0,0,0,0,0,0,0,0,0,0,0,0,0,0,0,0,0,0,0,0,0,1.265,1.268,1.268,1.27,1.275,1.277,1.28,1.282,1.285,1.282,1.285,1.285,1.285,1.282,1.282,1.28,1.277,1.275,1.275,1.275,1.273,1.273,1.273,1.273,1.273,1.273,1.273,1.273,1.275,1.277,1.28,1.285,1.287,0,1.307,0,0,0,0,0,0,0,0,0,0,0,1.29,1.285,1.28,1.277,1.275,1.273,1.273,1.273,1.275,1.275,0,0,0,0,0,0,0,0,0,0,0,0,0,0,0,0,0,1.287,1.285,1.285,1.285,1.285,1.285,0,2.077,2.077,2.077,2.077,2.07,2.07,2.064,2.064,2.07,2.077,2.077,2.077,2.07,0,0,0,0,2.142,0,0,2.142,2.136,2.136,2.129,2.129,2.116,2.109,2.109,2.103,2.103,2.096,2.096,2.09,2.09,0,0,0,0,0,0,0,0,0,0,2.136,2.109,2.096,2.083,2.077,2.064,2.045,2.039,2.033,2.027,2.027,2.027,2.021,2.021,2.015,1.997,1.997,0,0,0,0,0,0,0,0,0,0,0,2.07,2.07,2.07,2.07,2.064,2.064,2.052,2.052,2.052,2.045,2.039,2.039,0,0,0,0,0,0,0,0,0,1.33,1.338,1.349,1.362,1.37,1.39,1.408,0,0,0,0,0,0,0,0,0,1.327,1.322,1.317,1.315,1.312,1.309,1.309,1.309,1.317,1.33,0,0,0,1.437,1.462,1.488,1.504,1.501,1.491,1.478,1.459,0,0,0,0,0
0,0,0,0,1.132,1.132,1.132,1.132,1.132,1.132,1.13,1.13,1.13,1.13,1.13,1.13,1.13,1.13,1.13,1.13,1.13,1.13,1.13,1.13,1.13,1.132,1.132,1.134,1.138,1.142,1.149,1.157,1.165,1.173,1.182,1.19,1.198,1.207,1.211,1.213,1.215,1.215,1.215,1.218,1.22,1.22,1.22,1.222,1.222,1.224,1.224,1.226,1.229,1.229,1.233,1.233,1.235,1.238,1.238,1.24,1.24,1.242,1.242,1.24,1.24,1.235,1.231,1.226,1.22,1.215,1.211,1.205,1.2,1.198,1.194,1.192,1.194,1.192,1.192,1.192,1.19,1.19,1.19,1.192,1.192,1.192,1.192,1.194,1.194,1.196,1.196,1.198,1.203,1.205,1.207,1.209,1.213,1.215,1.22,1.222,1.224,1.224,1.226,1.226,1.229,1.229,1.229,1.229,1.229,1.229,1.229,1.229,1.229,1.229,1.229,1.229,1.231,1.231,1.233,1.235,1.238,1.245,1.247,1.251,1.256,1.261,1.261,1.263,1.263,1.261,1.256,1.251,1.247,1.24,1.235,1.233,1.231,1.229,1.226,1.229,1.229,1.233,1.238,1.242,1.249,1.258,1.261,1.265,1.268,1.273,0,0,0,0,0,0,0,0,0,0,0,0,0,0,0,0,0,0,0,0,0,0,0,0,0,0,0,0,0,0,0,0,0,0,0,0,0,0,0,0,0,0,0,0,0,0,0,0,0,0,0,0,1.275,1.28,1.285,1.287,1.287,1.282,1.282,1.277,1.27,1.263,1.256,1.254,1.251,1.249,1.251,1.254,1.256,1.258,1.261,0,0,0,0,0,0,0,0,0,0,0,0,0,0,0,0,0,0,0,0,0,0,0,0,0,0,0,2.077,2.077,2.083,2.09,2.09,2.096,2.096,0,0,0,0,0,0,0,0,0,0,0,0,0,0,1.24,1.247,0,1.247,1.247,1.249,0,0,0,0,0,1.188,1.182,0,0,1.169,1.171,1.175,1.179,1.19,1.196,1.205,1.215,1.222,1.229,0,1.245,0,0,0,0,0,2.039,2.039,2.039,2.045,2.045,2.052,2.045,2.045,2.039,2.039,0,0,0,0,0,0,0,0,0,0,0,0,0,0,0,0,0,0,0,0,0,0,0,0,0,0,0,0,0,1.258,1.258,1.261,1.261,1.263,1.268,1.27,1.273,1.273,1.275,1.275,1.277,1.277,1.277,1.275,1.275,1.275,1.27,1.27,1.268,1.268,1.268,1.265,1.268,1.265,1.265,1.265,1.268,1.268,1.27,1.273,1.277,1.277,1.282,0,0,0,0,0,0,0,0,0,0,0,0,1.287,1.282,1.28,1.275,1.27,1.27,1.27,1.268,1.268,1.27,1.27,0,0,0,0,0,0,0,0,0,0,0,0,0,0,0,0,0,1.28,1.28,1.277,1.277,1.277,1.277,0,2.077,2.077,2.07,2.077,2.07,2.07,2.064,2.07,2.077,2.083,2.083,2.083,2.083,0,0,0,0,0,0,0,2.116,2.129,2.129,2.122,2.122,2.116,2.109,2.103,2.103,2.103,2.096,2.096,2.096,2.09,0,0,0,0,0,0,0,0,0,0,0,2.096,2.083,2.077,2.07,2.058,2.045,2.039,2.033,2.027,2.027,2.027,2.027,2.021,2.015,1.997,0,0,0,0,0,0,0,0,0,0,0,0,0,0,2.07,2.07,2.07,2.064,2.058,2.058,2.052,2.045,2.045,2.039,2.039,0,0,0,0,0,0,0,0,0,1.32,1.325,1.33,1.333,1.351,1.357,0,0,0,0,0,0,0,0,0,0,1.325,1.317,1.312,1.309,1.304,1.304,1.302,1.304,1.312,1.325,1.343,0,0,1.416,1.437,1.453,1.456,1.453,1.444,1.434,0,0,0,0,0
0,0,0,1.134,1.132,1.134,1.134,1.134,1.134,1.134,1.132,1.132,1.134,1.132,1.132,1.132,1.134,1.132,1.132,1.132,1.132,1.13,1.13,1.13,1.13,1.132,1.132,1.134,1.138,1.142,1.149,1.157,1.165,1.173,1.182,1.19,1.196,1.203,1.207,1.209,1.211,1.213,1.213,1.215,1.215,1.215,1.218,1.218,1.22,1.222,1.224,1.224,1.229,1.231,1.233,1.235,1.238,1.24,1.242,1.245,1.247,1.249,1.249,1.247,1.245,1.24,1.235,1.229,1.222,1.215,1.209,1.203,1.198,1.192,1.19,1.186,1.186,1.186,1.184,1.186,1.186,1.184,1.184,1.186,1.186,1.186,1.186,1.188,1.188,1.19,1.19,1.192,1.196,1.196,1.198,1.2,1.203,1.207,1.209,1.211,1.213,1.213,1.215,1.215,1.215,1.218,1.218,1.218,1.218,1.218,1.218,1.218,1.218,1.218,1.218,1.218,1.22,1.222,1.222,1.224,1.226,1.231,1.233,1.24,1.245,1.247,1.249,1.249,1.249,1.247,1.242,1.238,1.233,1.226,1.224,1.222,1.22,1.22,1.22,1.22,1.22,1.222,1.226,1.226,1.233,1.24,1.24,1.242,0,0,0,0,0,0,0,0,0,0,0,0,0,0,0,0,0,0,0,0,1.177,0,0,0,0,0,0,0,0,0,0,0,0,0,0,0,0,0,0,0,0,0,0,0,1.196,0,0,0,0,0,0,0,0,1.245,1.254,1.263,1.268,1.27,1.273,1.27,1.268,1.263,1.258,1.254,1.249,1.242,1.242,1.242,1.242,1.245,1.245,1.245,1.247,1.247,1.247,1.245,1.24,0,0,0,0,0,0,1.222,0,0,0,0,1.215,1.213,1.209,0,0,0,0,0,0,0,0,0,0,2.077,2.083,2.083,2.09,0,0,0,0,0,0,0,0,0,0,0,0,0,0,0,1.238,1.235,1.238,1.24,0,1.238,0,0,1.229,1.222,0,1.198,1.192,1.186,1.179,1.177,1.175,1.175,1.177,1.182,1.188,1.196,1.203,1.211,1.215,0,1.229,1.238,0,0,0,0,2.027,2.033,2.033,2.033,2.039,2.039,2.039,2.039,2.039,2.039,0,0,0,0,0,0,0,0,0,0,0,0,0,0,0,0,0,0,0,0,0,0,0,0,0,0,0,0,0,0,1.251,1.251,1.251,1.254,1.258,1.261,1.263,1.265,1.268,1.27,1.27,1.273,1.273,1.27,1.27,1.27,1.268,1.265,1.263,1.261,1.261,1.261,1.261,1.261,1.258,1.258,1.261,1.263,1.265,1.265,1.268,1.27,1.273,1.277,1.285,0,0,0,0,0,0,0,0,0,0,1.292,1.282,1.277,1.275,1.27,1.268,1.265,1.265,1.265,1.265,1.265,1.268,1.268,0,0,0,0,0,0,0,0,0,0,0,0,0,0,1.273,1.273,1.273,1.273,1.27,1.27,1.27,1.27,1.27,0,2.07,2.07,2.077,2.077,2.07,2.07,2.07,2.083,2.083,2.083,2.09,2.083,0,0,0,0,0,0,0,0,2.116,2.122,2.122,2.116,2.109,2.109,2.109,2.103,2.103,2.103,2.096,2.096,2.096,0,0,0,0,0,0,0,0,0,0,0,2.09,2.077,2.07,2.07,2.058,2.045,2.033,2.033,2.027,2.027,2.027,2.027,2.027,2.015,1.997,0,0,0,0,0,0,0,0,0,0,0,0,0,0,0,2.07,2.07,2.064,2.058,2.058,2.052,2.052,2.045,2.039,2.039,2.033,0,0,0,0,0,0,0,0,1.297,1.302,1.297,1.294,1.297,1.302,1.309,0,0,0,0,0,0,0,0,1.338,1.327,1.32,0,1.307,1.302,1.297,1.294,1.294,1.299,1.307,1.32,0,0,0,1.399,1.413,1.416,1.419,1.419,1.416,0,0,0,0,1.312
0,0,0,1.134,1.134,1.134,1.134,1.136,1.138,1.138,1.136,1.136,1.136,1.136,1.136,1.134,1.134,1.134,1.134,1.132,1.132,1.13,1.13,1.13,1.13,1.132,1.134,1.136,1.138,1.144,1.149,1.157,1.165,1.173,1.179,1.188,1.194,1.198,1.203,1.207,1.207,1.209,1.209,1.211,1.211,1.213,1.215,1.218,1.22,1.222,1.224,1.226,1.229,1.233,1.238,1.24,1.242,1.245,1.249,1.251,1.254,1.254,1.254,1.254,1.249,1.245,1.238,1.231,1.222,1.215,1.207,1.198,1.194,1.188,1.184,1.179,1.179,1.177,1.177,1.177,1.177,1.177,1.177,1.177,1.179,1.179,1.182,1.182,1.182,1.182,1.184,1.186,1.188,1.19,1.19,1.192,1.194,1.196,1.2,1.2,1.2,1.203,1.205,1.205,1.205,1.205,1.207,1.207,1.207,1.209,1.207,1.207,1.209,1.209,1.209,1.209,1.209,1.211,1.213,1.213,1.215,1.22,1.22,1.226,1.231,1.235,1.235,1.235,1.235,1.233,1.229,1.224,1.22,1.215,1.213,1.211,1.209,1.209,1.209,1.211,1.209,1.211,1.215,1.215,1.22,1.222,1.22,1.222,1.218,1.215,0,0,0,0,0,0,0,0,0,0,0,0,0,0,1.182,1.179,1.177,1.177,1.177,1.177,0,0,0,0,0,0,0,0,0,0,0,0,0,0,0,0,0,0,1.194,1.194,1.194,1.192,1.188,0,0,1.182,1.182,0,1.198,1.209,1.222,1.231,1.24,1.247,1.251,1.254,1.258,1.256,1.251,1.249,1.247,1.242,1.238,1.235,1.233,1.233,1.231,1.233,1.233,1.233,1.235,1.233,1.233,1.231,1.226,1.22,1.218,0,0,0,1.213,1.213,1.213,1.213,1.213,1.211,1.209,1.205,1.203,1.2,1.198,0,0,0,0,0,0,0,0,0,2.083,2.09,2.096,0,0,0,0,0,0,0,0,0,0,0,0,0,0,0,0,1.226,1.229,0,0,0,0,1.224,1.22,1.213,0,1.196,1.19,1.186,1.179,1.177,1.177,1.177,1.179,1.182,1.188,1.192,1.2,1.207,1.213,1.218,1.224,0,0,0,0,0,0,2.033,2.027,2.027,2.033,2.039,2.039,2.039,2.033,2.033,0,0,0,0,0,0,0,0,0,0,0,0,0,0,0,0,0,0,0,0,0,0,0,0,0,0,0,0,0,0,1.245,1.245,1.247,1.247,1.251,1.256,1.258,1.261,1.263,1.265,1.265,1.27,1.27,1.27,1.268,1.268,1.265,1.261,1.261,1.258,1.258,1.256,1.256,1.256,1.256,1.256,1.256,1.258,1.261,1.263,1.265,1.265,1.268,1.27,0,0,0,0,0,0,0,0,0,0,0,0,1.28,1.275,1.273,1.268,1.265,1.263,1.263,1.263,1.261,1.263,1.263,1.265,0,0,0,0,0,0,0,0,0,0,0,0,0,0,1.268,1.268,1.268,1.268,1.265,1.265,1.263,1.263,1.263,0,2.07,2.064,2.07,2.07,2.07,2.07,2.07,2.077,2.083,2.09,2.09,2.09,2.09,0,0,0,0,0,0,0,2.109,2.116,2.116,2.116,2.109,2.103,2.103,2.103,2.103,2.103,2.096,2.103,2.103,0,0,0,0,0,0,0,0,0,0,0,0,0,0,2.058,2.052,2.039,2.033,2.033,2.027,2.027,2.033,2.033,2.027,2.015,0,1.991,0,0,0,0,0,0,0,0,0,0,0,0,0,0,0,2.07,2.064,2.058,2.058,2.052,2.052,2.045,2.039,2.033,2.033,0,0,0,0,0,0,0,0,0,1.282,1.28,1.277,1.275,1.277,1.285,1.29,0,0,0,0,1.349,1.346,1.346,1.341,1.333,1.322,1.312,1.307,1.299,1.294,1.287,1.285,1.285,1.29,1.297,1.312,1.327,1.343,0,0,0,0,0,1.39,1.384,1.373,1.351,1.33,0
0,0,0,1.132,1.134,1.134,1.136,1.136,1.138,1.14,1.138,1.138,1.138,1.138,1.138,1.136,1.136,1.134,1.134,1.132,1.132,1.132,1.13,1.132,1.13,1.132,1.132,1.136,1.138,1.144,1.149,1.155,1.163,1.171,1.177,1.184,1.19,1.196,1.198,1.2,1.203,1.205,1.207,1.207,1.209,1.209,1.213,1.215,1.22,1.224,1.226,1.231,1.233,1.24,1.245,1.247,1.251,1.254,1.256,1.258,1.258,1.258,1.258,1.258,1.256,1.249,1.242,1.233,1.224,1.215,1.205,1.196,1.188,1.182,1.177,1.173,1.173,1.171,1.171,1.171,1.173,1.173,1.171,1.173,1.173,1.173,1.175,1.175,1.175,1.175,1.177,1.179,1.182,1.182,1.182,1.184,1.186,1.188,1.19,1.192,1.192,1.194,1.194,1.196,1.196,1.196,1.198,1.198,1.198,1.198,1.198,1.198,1.2,1.2,1.2,1.2,1.2,1.203,1.203,1.203,1.205,1.207,1.209,1.215,1.218,1.22,1.22,1.22,1.22,1.218,1.215,1.211,1.207,1.205,1.203,1.2,1.2,1.2,1.2,1.2,1.2,1.203,1.205,1.205,1.207,1.209,1.211,1.209,1.205,1.205,1.198,1.194,1.19,0,0,0,0,0,0,0,0,1.177,1.177,1.177,1.177,1.177,0,1.175,1.175,1.175,1.175,1.177,0,0,0,0,0,0,0,0,0,0,0,0,0,0,0,1.182,1.184,1.186,1.186,1.184,1.182,1.182,1.179,1.177,1.179,1.182,1.186,1.196,1.205,1.213,1.222,1.229,1.233,1.238,1.24,1.242,1.238,1.238,1.233,1.231,1.229,1.226,1.224,1.224,1.224,1.224,1.224,1.222,1.222,1.222,1.222,1.22,1.215,1.211,1.209,1.209,1.209,1.209,1.209,1.207,1.207,1.207,1.205,1.205,1.203,1.2,1.196,1.196,1.194,0,0,0,0,0,0,0,0,0,0,0,0,0,0,0,0,0,0,0,0,0,0,1.198,0,0,0,0,1.218,1.218,1.22,1.222,0,0,1.218,1.213,1.209,1.205,1.2,1.192,1.188,1.186,1.179,1.179,1.177,1.177,1.177,1.179,1.184,1.19,1.194,1.203,1.207,1.211,0,0,0,0,0,0,0,0,2.027,2.027,2.027,2.033,2.033,2.033,2.027,0,0,0,0,0,0,0,0,0,0,0,0,0,0,0,0,0,0,0,0,0,0,0,0,0,0,0,0,0,0,1.235,1.235,1.238,1.24,1.242,1.245,1.247,1.249,1.254,1.256,1.256,1.258,1.261,1.263,1.263,1.263,1.263,1.261,1.258,1.256,1.256,1.254,1.254,1.254,1.251,1.251,1.249,1.251,1.254,1.258,1.258,1.261,1.261,1.261,0,0,0,0,0,0,0,0,0,0,0,0,0,0,1.273,1.27,1.268,1.263,1.263,1.261,1.261,1.261,1.261,1.263,1.263,0,0,0,0,0,0,0,0,0,0,0,0,0,1.268,1.268,1.268,1.268,1.265,1.263,1.263,1.263,1.261,0,0,2.064,2.064,2.07,2.07,2.064,2.064,2.064,2.07,2.077,2.083,2.09,2.09,2.09,0,0,2.116,0,0,0,0,2.109,2.116,2.109,2.109,2.103,2.103,2.109,2.109,2.109,2.109,2.109,2.109,2.103,0,0,0,0,0,0,0,0,0,0,0,0,0,0,0,2.045,2.045,2.033,2.033,2.033,2.033,2.027,2.027,0,2.009,0,0,0,0,0,0,0,0,0,0,0,0,0,0,0,0,0,0,2.064,2.058,2.052,2.052,2.045,2.039,2.039,2.033,2.033,2.027,0,0,0,0,0,0,0,0,0,1.273,1.27,1.27,1.27,1.273,1.277,1.285,1.294,1.304,1.322,1.33,1.338,1.343,1.341,1.333,1.322,1.315,1.307,1.294,1.29,1.285,1.277,1.275,1.275,1.28,1.287,1.299,1.312,1.325,1.341,1.349,1.351,1.359,1.362,1.362,1.357,1.343,0,1.307
0,0,1.13,1.132,1.132,1.134,1.134,1.138,1.14,1.14,1.14,1.138,1.14,1.138,1.138,1.136,1.136,1.134,1.134,1.132,1.132,1.132,1.13,1.132,1.13,1.132,1.132,1.136,1.138,1.144,1.149,1.155,1.161,1.169,1.175,1.182,1.186,1.19,1.194,1.196,1.198,1.2,1.203,1.203,1.205,1.209,1.211,1.215,1.22,1.224,1.231,1.233,1.238,1.245,1.249,1.256,1.258,1.261,1.263,1.265,1.265,1.265,1.265,1.263,1.261,1.254,1.247,1.235,1.226,1.215,1.205,1.194,1.186,1.179,1.173,1.169,1.167,1.167,1.167,1.167,1.167,1.167,1.167,1.167,1.169,1.169,1.169,1.171,1.171,1.171,1.171,1.171,1.175,1.173,1.175,1.177,1.179,1.179,1.182,1.182,1.184,1.184,1.184,1.186,1.188,1.188,1.19,1.19,1.192,1.192,1.19,1.192,1.192,1.194,1.192,1.192,1.192,1.194,1.194,1.194,1.194,1.194,1.196,1.2,1.2,1.203,1.203,1.205,1.205,1.203,1.203,1.2,1.196,1.194,1.192,1.192,1.19,1.19,1.192,1.192,1.19,1.194,1.192,1.194,1.194,1.194,1.194,1.194,1.192,1.188,1.188,1.184,1.182,1.177,1.175,0,1.175,1.175,1.175,1.175,1.175,1.175,1.173,1.173,1.175,1.173,1.173,1.171,1.171,1.171,1.173,1.173,1.173,1.173,1.173,1.173,1.171,0,0,0,0,0,0,1.171,0,0,1.175,1.177,1.175,1.177,1.177,1.179,1.175,1.175,1.173,1.175,1.175,1.175,1.182,1.188,1.194,1.2,1.207,1.211,1.215,1.222,1.224,1.226,1.222,1.222,1.22,1.218,1.218,1.215,1.215,1.213,1.213,1.213,1.213,1.213,1.213,1.213,1.213,1.211,1.207,1.205,1.205,1.205,1.205,1.205,1.203,1.203,1.203,1.203,1.2,1.2,1.196,1.196,1.192,1.19,1.188,0,1.182,1.177,1.175,1.171,0,0,0,0,0,0,0,0,0,0,0,0,0,0,0,0,1.188,1.192,1.196,1.2,1.205,1.207,1.207,1.209,1.211,1.209,1.211,1.211,1.209,1.205,1.203,1.2,1.194,1.19,1.188,1.182,1.179,1.175,1.175,1.175,1.175,1.177,1.182,1.186,1.19,1.194,1.198,1.203,0,0,0,0,0,0,0,0,0,2.021,2.021,2.033,0,0,0,0,0,0,0,0,0,0,0,0,0,0,0,0,0,0,0,0,0,0,0,0,0,0,0,0,0,0,0,0,0,1.229,1.231,1.231,1.233,1.233,1.238,1.24,1.242,1.245,1.249,1.251,1.254,1.256,1.258,1.258,1.258,1.258,1.256,1.254,1.251,1.254,1.249,1.249,1.249,1.247,1.247,1.249,1.249,1.251,1.254,1.256,1.258,1.258,1.261,0,0,0,0,0,0,0,0,0,0,0,0,0,0,1.27,0,1.265,1.263,1.261,1.258,1.261,1.261,1.261,1.261,0,0,0,0,0,0,0,0,0,0,0,0,0,0,1.268,1.268,1.268,1.265,1.265,1.263,1.261,1.261,0,0,0,2.064,2.064,2.07,2.07,2.064,2.064,2.064,2.07,2.077,2.083,2.083,2.083,2.09,2.096,0,2.122,0,0,0,0,0,2.116,2.109,2.109,2.109,2.109,2.109,2.109,2.116,2.109,2.109,2.109,2.109,2.116,2.116,0,0,0,0,0,0,0,0,0,0,0,0,0,0,0,0,0,0,0,0,0,0,0,0,0,0,0,0,0,0,0,0,0,0,0,0,0,0,0,0,0,0,2.058,2.052,2.052,2.045,2.039,2.033,2.027,2.027,2.027,0,0,0,0,0,0,0,0,0,0,1.263,1.261,1.263,1.265,1.27,1.277,1.285,1.297,1.309,1.32,1.33,1.335,1.335,1.33,1.322,1.312,1.304,1.294,1.287,1.282,1.277,1.27,1.27,1.27,1.273,1.28,1.287,1.299,1.309,1.315,1.325,1.33,1.335,1.338,1.338,1.33,0,0
0,0,1.128,1.13,1.132,1.134,1.134,1.138,1.14,1.14,1.14,1.138,1.138,1.138,1.138,1.136,1.136,1.134,1.132,1.132,1.132,1.13,1.13,1.132,1.13,1.132,1.134,1.136,1.14,1.146,1.149,1.155,1.161,1.167,1.171,1.177,1.182,1.186,1.188,1.192,1.192,1.194,1.198,1.2,1.203,1.207,1.209,1.215,1.222,1.229,1.233,1.238,1.245,1.251,1.258,1.263,1.265,1.268,1.27,1.273,1.273,1.273,1.27,1.27,1.265,1.258,1.249,1.238,1.226,1.215,1.205,1.192,1.184,1.175,1.169,1.165,1.163,1.163,1.163,1.163,1.163,1.163,1.163,1.163,1.165,1.165,1.165,1.167,1.165,1.167,1.167,1.167,1.169,1.169,1.169,1.171,1.171,1.173,1.175,1.175,1.175,1.177,1.177,1.177,1.179,1.182,1.182,1.184,1.184,1.186,1.184,1.186,1.186,1.188,1.186,1.186,1.186,1.188,1.186,1.186,1.186,1.186,1.186,1.188,1.19,1.19,1.19,1.19,1.192,1.19,1.19,1.188,1.186,1.184,1.184,1.184,1.182,1.182,1.184,1.184,1.184,1.182,1.184,1.184,1.184,1.182,1.182,1.184,1.179,1.182,1.179,1.177,1.175,1.173,1.173,1.173,1.173,1.169,1.171,1.173,1.173,1.173,1.173,1.173,1.173,1.171,1.169,1.169,1.169,1.169,1.169,1.171,1.171,1.171,1.171,1.171,1.171,1.171,1.169,1.171,1.171,0,1.171,1.169,1.173,1.171,1.173,1.173,1.173,1.173,1.173,1.173,1.173,1.171,1.171,1.171,1.171,1.173,1.175,1.177,1.184,1.188,1.192,1.196,1.2,1.205,1.207,1.209,1.209,1.209,1.207,1.207,1.207,1.207,1.205,1.205,1.205,1.205,1.207,1.207,1.207,1.207,1.205,1.205,1.2,1.2,1.2,1.2,1.2,1.2,1.198,1.198,1.198,1.196,1.196,1.194,1.192,1.19,1.188,1.186,1.184,1.182,1.177,1.173,1.171,1.169,1.167,1.165,1.165,1.161,1.161,1.159,1.159,1.159,1.159,1.161,1.163,1.165,1.167,1.173,1.177,1.182,1.184,1.186,1.19,1.194,1.198,1.198,1.198,1.2,1.2,1.2,1.203,1.203,1.2,1.198,1.196,1.194,1.192,1.188,1.184,1.182,1.177,1.175,1.173,1.173,1.173,1.173,1.177,1.182,1.186,1.19,1.192,1.194,1.196,1.198,0,0,0,0,0,0,0,0,0,0,0,0,0,0,0,0,0,0,0,0,0,1.192,1.192,0,0,0,0,0,0,0,0,0,0,1.203,1.207,1.209,1.211,1.213,1.215,1.213,1.215,1.218,1.218,1.22,1.222,1.222,1.222,1.224,1.229,1.231,1.233,1.235,1.24,1.242,1.245,1.249,1.254,1.251,1.254,1.251,1.249,1.247,1.247,1.247,1.245,1.245,1.245,1.242,1.242,1.245,1.247,1.249,1.251,1.254,1.256,0,0,0,0,0,0,0,0,0,0,0,0,0,0,0,0,0,0,0,1.261,1.258,1.258,1.261,1.258,1.261,0,0,0,0,0,0,0,0,0,0,0,0,0,0,1.268,1.268,1.265,1.265,1.265,1.263,1.261,1.261,1.258,0,0,0,0,2.064,2.064,2.064,2.064,2.064,2.064,2.07,2.077,2.083,2.083,2.083,2.09,2.096,0,0,0,0,0,0,0,0,2.109,2.109,2.109,2.109,2.116,2.116,2.116,2.116,2.116,2.116,2.116,2.116,2.122,0,0,0,0,0,0,0,0,0,0,0,0,0,0,0,0,0,0,0,0,0,0,0,0,0,0,0,0,0,0,0,0,0,0,0,0,0,0,0,0,0,0,0,2.052,2.052,2.045,2.039,2.039,2.033,2.027,2.027,2.027,0,0,0,0,0,0,0,0,0,1.256,1.256,1.258,1.261,1.265,1.273,1.28,1.29,1.302,1.312,1.32,1.327,1.33,1.327,1.32,1.315,1.304,1.294,1.285,1.28,1.275,1.268,1.265,1.263,1.263,1.265,1.27,1.277,1.285,1.29,1.297,1.304,1.309,1.312,0,0,0,0
0,0,1.128,1.13,1.132,1.132,1.132,1.136,1.138,1.138,1.138,1.138,1.136,1.136,1.136,1.134,1.134,1.132,1.132,1.132,1.13,1.13,1.13,1.13,1.13,1.132,1.134,1.136,1.14,1.146,1.149,1.153,1.159,1.165,1.169,1.173,1.177,1.182,1.184,1.188,1.192,1.194,1.196,1.198,1.2,1.205,1.211,1.218,1.224,1.231,1.238,1.245,1.251,1.261,1.265,1.27,1.273,1.275,1.277,1.28,1.28,1.28,1.277,1.275,1.27,1.263,1.254,1.242,1.229,1.215,1.205,1.194,1.182,1.173,1.167,1.163,1.161,1.161,1.159,1.159,1.159,1.161,1.161,1.161,1.163,1.163,1.163,1.163,1.163,1.163,1.163,1.163,1.165,1.165,1.165,1.165,1.167,1.169,1.169,1.171,1.171,1.173,1.173,1.173,1.175,1.177,1.177,1.179,1.179,1.182,1.179,1.182,1.182,1.182,1.182,1.182,1.182,1.179,1.182,1.179,1.179,1.177,1.177,1.179,1.179,1.179,1.177,1.179,1.179,1.179,1.179,1.177,1.177,1.175,1.175,1.175,1.175,1.175,1.177,1.175,1.177,1.175,1.175,1.175,1.177,1.177,1.177,1.175,1.177,1.175,1.175,1.173,1.175,1.173,1.173,1.171,1.171,1.171,1.171,1.171,1.171,1.171,1.171,1.169,1.169,1.167,1.167,1.165,1.167,1.167,1.169,1.169,1.169,1.169,1.169,1.169,0,1.171,1.171,1.171,1.169,1.169,1.169,1.169,1.169,1.169,1.169,1.169,1.169,1.169,1.171,1.171,1.169,1.169,1.167,1.167,1.167,1.169,1.169,1.171,1.175,1.177,1.182,1.186,1.188,1.192,1.194,1.196,1.196,1.196,1.196,1.196,1.196,1.196,1.196,1.196,1.196,1.196,1.196,1.196,1.196,1.198,1.196,1.196,1.192,1.192,1.192,1.194,1.194,1.194,1.192,1.192,1.192,1.192,1.19,1.188,1.188,1.186,1.182,1.179,1.177,1.175,1.173,1.171,1.169,1.165,1.165,1.163,1.163,1.159,1.159,1.159,1.159,1.159,1.159,1.161,1.161,1.163,1.167,1.173,1.175,1.177,1.182,1.184,1.188,1.19,1.192,1.194,1.194,1.194,1.194,1.196,1.196,1.196,1.196,1.192,1.19,1.19,1.186,1.184,1.182,1.177,1.175,1.173,1.173,1.171,1.171,1.173,1.177,1.179,1.182,1.184,1.186,1.188,1.19,1.192,1.19,1.188,1.186,1.184,0,0,0,0,0,0,0,0,0,0,0,0,0,0,0,0,1.184,1.182,1.184,1.184,1.184,1.182,0,0,0,0,1.184,1.186,1.192,1.194,1.198,1.2,1.205,1.207,1.207,1.207,1.209,1.211,1.213,1.213,1.213,1.215,1.215,1.218,1.222,1.224,1.226,1.229,1.233,1.235,1.24,1.242,1.247,1.247,1.247,1.247,1.245,1.242,1.242,1.242,1.24,1.24,1.24,1.24,1.24,1.242,1.242,1.245,1.247,1.251,1.251,0,0,0,0,0,0,0,0,0,0,0,0,0,0,0,0,0,0,0,1.261,1.256,1.258,1.258,0,0,0,0,0,0,0,0,0,0,0,0,0,0,0,0,1.268,1.265,1.263,1.265,1.263,1.261,1.258,1.258,0,0,0,0,0,2.064,2.064,2.064,2.064,2.064,2.064,2.07,2.077,2.083,2.083,2.083,2.09,0,0,0,0,0,0,0,0,0,0,0,0,0,2.116,2.116,2.116,2.116,2.116,2.116,2.116,2.122,2.122,0,0,0,0,0,0,0,0,0,0,0,0,0,0,0,0,0,0,0,0,0,0,0,0,0,0,0,0,0,0,0,0,0,0,0,0,0,0,0,0,0,0,0,0,2.045,2.039,2.039,2.039,2.033,2.027,2.027,0,0,0,0,0,0,0,0,0,0,1.251,1.254,1.256,1.258,1.263,1.268,1.275,1.285,1.294,1.304,1.312,1.32,1.322,1.322,1.32,1.312,1.307,0,1.285,1.28,1.273,1.268,1.263,1.258,1.256,1.254,1.256,1.258,1.263,1.27,1.275,1.282,1.287,1.29,1.294,0,0,0
0,0,1.125,1.126,1.128,1.13,1.13,1.134,1.136,1.136,1.136,1.136,1.134,1.134,1.134,1.134,1.132,1.132,1.13,1.13,1.13,1.128,1.13,1.13,1.13,1.132,1.134,1.136,1.14,1.144,1.149,1.151,1.157,1.161,1.165,1.171,1.173,1.179,1.184,1.186,1.19,1.192,1.196,1.198,1.2,1.205,1.213,1.218,1.226,1.235,1.242,1.251,1.258,1.268,1.275,1.28,1.28,1.282,1.285,1.285,1.285,1.282,1.282,1.277,1.273,1.263,1.254,1.242,1.229,1.215,1.203,1.192,1.182,1.171,1.165,1.163,1.159,1.159,1.159,1.159,1.157,1.157,1.159,1.159,1.161,1.161,1.161,1.161,1.159,1.161,1.161,1.161,1.161,1.161,1.161,1.161,1.163,1.165,1.165,1.165,1.167,1.167,1.169,1.169,1.169,1.171,1.171,1.173,1.173,1.173,1.175,1.175,1.177,1.175,1.175,1.175,1.175,1.175,1.175,1.173,1.173,1.173,1.173,1.173,1.171,1.171,1.171,1.171,1.171,1.171,1.173,1.173,1.173,1.173,1.171,1.171,1.171,1.171,1.173,1.173,1.173,1.173,1.171,1.171,1.173,1.171,1.171,1.173,1.173,1.173,1.171,1.171,1.173,1.171,1.171,1.169,1.169,1.169,1.169,1.169,1.169,1.169,1.167,1.167,1.165,1.165,1.163,1.165,1.163,1.165,1.165,1.165,1.165,1.165,1.167,1.167,1.167,1.169,1.169,1.169,1.169,1.169,1.169,1.167,1.167,1.169,1.167,1.165,1.165,1.165,1.167,1.167,1.167,1.165,1.165,1.165,1.165,1.165,1.165,1.165,1.167,1.171,1.171,1.173,1.177,1.179,1.182,1.184,1.186,1.186,1.184,1.186,1.186,1.186,1.186,1.188,1.188,1.188,1.188,1.188,1.188,1.188,1.186,1.186,1.184,1.184,1.184,1.186,1.186,1.186,1.186,1.184,1.184,1.182,1.179,1.179,1.179,1.177,1.175,1.173,1.173,1.171,1.169,1.169,1.167,1.165,1.163,1.163,1.161,1.159,1.159,1.159,1.157,1.157,1.159,1.159,1.161,1.163,1.165,1.171,1.173,1.175,1.177,1.182,1.184,1.186,1.188,1.188,1.19,1.19,1.19,1.192,1.19,1.19,1.19,1.188,1.188,1.186,1.184,1.182,1.179,1.177,1.175,1.173,1.173,1.171,1.171,1.171,1.175,1.177,1.179,1.182,1.182,1.184,1.184,1.186,1.186,1.184,1.179,1.179,1.177,1.177,1.177,1.177,1.177,1.177,1.177,1.177,1.179,1.179,1.175,1.175,1.173,1.177,1.179,1.182,1.182,1.179,1.182,1.182,1.182,1.182,1.179,0,0,1.177,1.182,1.186,1.192,1.194,1.198,1.2,1.205,1.207,1.207,1.207,1.209,1.209,1.211,1.211,1.211,1.213,1.213,1.215,1.218,1.22,1.222,1.224,1.229,1.233,1.235,1.24,1.245,1.245,1.245,1.245,1.242,1.242,1.24,1.24,1.238,1.238,1.238,1.24,1.238,1.24,1.24,1.242,1.242,1.247,0,0,0,0,0,0,0,0,0,0,0,0,0,0,0,0,0,0,0,0,0,0,0,0,0,0,0,0,0,0,0,0,0,0,0,0,0,0,0,0,0,0,1.263,0,0,0,0,0,0,0,0,0,0,0,0,2.077,2.064,2.058,2.058,2.064,2.07,2.077,2.083,2.083,2.083,0,0,0,0,0,0,0,0,0,0,0,0,0,0,2.122,2.122,2.116,2.116,2.116,2.122,2.122,0,0,0,0,0,0,0,0,0,0,0,0,0,1.224,1.222,0,0,1.224,1.224,0,0,0,0,0,0,0,0,0,0,0,0,0,0,0,0,0,0,0,0,0,0,1.231,0,0,0,0,2.045,2.039,2.033,2.033,2.027,2.027,0,0,0,0,0,0,0,0,0,0,0,1.247,1.249,1.254,1.258,1.263,1.268,1.275,1.285,1.294,1.302,1.307,1.315,1.315,1.312,1.309,1.304,1.292,1.285,1.277,1.27,1.268,1.261,1.256,1.251,1.251,1.254,1.256,1.261,1.265,1.27,1.275,1.277,1.282,1.285,1.285,0,0
0,0,1.125,1.125,1.126,1.126,1.128,1.132,1.132,1.132,1.132,1.134,1.132,1.132,1.13,1.132,1.13,1.13,1.13,1.128,1.128,1.128,1.128,1.13,1.13,1.132,1.134,1.138,1.14,1.144,1.147,1.149,1.155,1.159,1.163,1.165,1.171,1.175,1.179,1.186,1.188,1.192,1.196,1.2,1.205,1.209,1.215,1.222,1.231,1.24,1.247,1.256,1.265,1.275,1.28,1.285,1.285,1.287,1.287,1.287,1.287,1.285,1.28,1.277,1.27,1.263,1.251,1.24,1.226,1.215,1.203,1.19,1.179,1.171,1.165,1.161,1.159,1.157,1.157,1.155,1.155,1.157,1.157,1.157,1.159,1.161,1.159,1.161,1.161,1.161,1.161,1.159,1.159,1.159,1.159,1.161,1.161,1.161,1.161,1.163,1.163,1.165,1.165,1.165,1.165,1.167,1.169,1.169,1.169,1.171,1.171,1.171,1.173,1.171,1.171,1.171,1.171,1.171,1.169,1.169,1.169,1.167,1.167,1.167,1.167,1.169,1.167,1.169,1.169,1.169,1.171,1.169,1.169,1.171,1.169,1.169,1.169,1.169,1.171,1.171,1.171,1.171,1.169,1.167,1.169,1.169,1.169,1.169,1.171,1.171,1.171,1.169,1.171,1.171,1.169,1.169,1.169,1.167,1.167,1.167,1.167,1.167,1.165,1.165,1.163,1.163,1.161,1.161,1.161,1.163,1.163,1.165,1.165,1.165,1.167,1.167,1.167,1.167,1.167,1.169,1.167,1.167,1.167,1.167,1.165,1.165,1.165,1.163,1.161,1.163,1.161,1.163,1.161,1.163,1.163,1.163,1.161,1.161,1.161,1.161,1.161,1.163,1.165,1.167,1.169,1.169,1.171,1.173,1.173,1.173,1.175,1.175,1.175,1.177,1.177,1.179,1.179,1.179,1.182,1.182,1.179,1.179,1.177,1.179,1.175,1.177,1.175,1.175,1.175,1.175,1.175,1.175,1.175,1.173,1.173,1.173,1.171,1.171,1.169,1.169,1.169,1.167,1.167,1.167,1.165,1.163,1.163,1.161,1.161,1.159,1.159,1.157,1.157,1.157,1.159,1.159,1.159,1.161,1.163,1.167,1.171,1.173,1.175,1.177,1.179,1.182,1.184,1.184,1.184,1.184,1.186,1.186,1.186,1.186,1.186,1.184,1.184,1.182,1.179,1.177,1.177,1.175,1.175,1.173,1.173,1.173,1.171,1.173,1.175,1.175,1.177,1.179,1.179,1.182,1.182,1.184,1.182,1.182,1.177,1.177,1.175,1.173,1.173,1.173,1.173,1.173,1.173,1.173,1.175,1.171,1.171,1.169,1.167,1.173,1.175,1.175,1.177,1.175,1.175,1.177,1.179,1.177,1.175,1.171,1.173,1.175,1.182,1.186,1.19,1.194,1.196,1.2,1.205,1.207,1.207,1.207,1.207,1.209,1.209,1.209,1.209,1.209,1.209,1.209,1.213,1.215,1.218,1.22,1.224,1.229,1.231,1.235,1.24,1.24,1.24,1.24,1.24,1.238,1.238,1.235,1.235,1.235,1.235,1.235,1.235,1.235,0,0,0,0,0,0,0,0,0,0,0,0,0,0,0,0,0,0,0,0,0,0,0,0,0,0,0,0,0,0,0,0,0,0,0,0,0,0,0,0,0,0,0,0,0,0,0,0,0,0,0,0,0,0,0,0,0,0,0,0,0,2.058,2.058,2.064,2.07,2.077,2.083,2.083,0,0,0,0,0,0,0,0,0,0,0,0,0,0,0,2.129,2.122,2.122,2.116,2.116,2.122,2.122,0,0,0,0,0,0,0,0,0,0,0,0,1.22,1.22,1.22,1.222,1.224,1.226,1.226,0,0,0,0,0,0,0,0,0,0,0,0,0,0,0,0,0,0,0,1.245,1.238,1.233,1.231,1.231,0,0,0,2.045,2.039,2.039,2.033,0,0,0,0,0,0,0,0,0,0,0,0,0,0,1.245,1.247,1.251,1.256,1.258,1.265,1.273,1.28,1.29,1.294,1.299,1.302,1.307,1.304,1.299,1.29,1.285,1.275,1.27,1.263,1.258,1.254,1.249,1.249,1.249,1.249,1.251,1.258,1.261,1.265,1.268,1.268,1.27,1.273,0,0
